ply
format ascii 1.0
comment Author: CloudCompare (TELECOM PARISTECH/EDF R&D)
obj_info Generated by CloudCompare!
element vertex 1304
property float x
property float y
property float z
property uchar red
property uchar green
property uchar blue
property float scalar_Scalar_field
end_header
15.006 1.531 3.396 255 244 210 3187 
15.006 1.531 3.392 255 244 210 3185 
15.007 1.53 3.387 255 244 210 3159 
15.008 1.528 3.382 255 245 211 3112 
15.006 1.531 3.381 255 245 213 3120 
15.006 1.531 3.378 255 245 213 3142 
15.007 1.529 3.373 255 245 213 3170 
15.006 1.532 3.372 255 245 213 3111 
15.005 1.533 3.369 255 245 213 3261 
15.004 1.535 3.368 255 245 213 3156 
15.007 1.531 3.361 255 245 213 3117 
15.006 1.532 3.357 255 245 213 3187 
15.006 1.533 3.355 255 245 213 3176 
15.006 1.533 3.352 255 246 211 3192 
15.006 1.532 3.348 255 245 211 3234 
15.006 1.533 3.345 255 243 208 3211 
15.006 1.532 3.341 255 244 206 3164 
15.007 1.531 3.336 255 244 206 3197 
15.005 1.534 3.336 255 244 204 3193 
15.007 1.532 3.33 255 245 207 3169 
15.007 1.531 3.326 255 243 208 3156 
15.009 1.53 3.321 255 244 212 3189 
15.007 1.532 3.32 255 245 213 3160 
15.007 1.532 3.317 255 246 214 3186 
15.007 1.532 3.313 255 246 214 3126 
15.005 1.536 3.313 255 245 211 3196 
15.007 1.532 3.307 255 245 211 3134 
15.007 1.532 3.303 255 244 210 3084 
15.007 1.533 3.301 255 244 209 3205 
15.007 1.533 3.297 255 244 209 3134 
15.007 1.533 3.293 255 245 207 3144 
15.006 1.534 3.291 255 245 207 3236 
15.009 1.531 3.284 255 244 206 3171 
15.007 1.533 3.283 255 244 206 3230 
15.008 1.531 3.278 255 245 210 3227 
15.007 1.533 3.277 255 244 209 3160 
15.008 1.533 3.272 255 245 207 3171 
15.007 1.534 3.271 255 244 206 3182 
15.008 1.532 3.265 255 242 203 3092 
15.007 1.533 3.263 255 241 202 3084 
15.007 1.534 3.261 255 244 204 3153 
15.006 1.535 3.259 255 244 204 3165 
15.007 1.535 3.254 255 244 206 3163 
15.007 1.534 3.251 255 243 208 3142 
14.987 1.529 4.269 255 250 220 3167 
14.985 1.531 4.268 255 250 220 3142 
14.987 1.529 4.26 255 250 220 3227 
14.986 1.53 4.258 255 250 220 3189 
14.986 1.53 4.253 255 249 219 3227 
14.987 1.53 4.248 255 250 220 3202 
14.986 1.531 4.245 255 251 220 3155 
14.987 1.53 4.239 255 251 220 3123 
14.985 1.533 4.239 255 251 220 3172 
14.987 1.531 4.232 255 250 219 3243 
14.987 1.53 4.227 255 248 218 3172 
14.988 1.529 4.221 255 249 219 3218 
14.987 1.53 4.218 255 249 219 3256 
14.987 1.53 4.213 255 248 219 3079 
14.987 1.532 4.211 255 248 219 3264 
14.987 1.531 4.206 255 250 220 3284 
14.988 1.53 4.201 255 250 220 3169 
14.988 1.53 4.196 255 250 220 3200 
14.988 1.53 4.192 255 250 220 3231 
14.986 1.533 4.191 255 250 220 3167 
14.988 1.53 4.184 255 250 222 3164 
14.988 1.53 4.179 255 250 222 3302 
14.987 1.532 4.177 255 250 222 3196 
14.987 1.533 4.174 255 252 223 3134 
14.987 1.532 4.169 255 252 223 3200 
14.987 1.533 4.165 255 251 222 3268 
14.988 1.531 4.159 255 251 222 3190 
14.989 1.529 4.152 255 251 222 3184 
14.988 1.531 4.15 255 251 222 3188 
14.989 1.529 4.144 255 250 219 3167 
14.988 1.531 4.141 255 250 219 3205 
14.988 1.532 4.138 255 249 219 3160 
14.989 1.531 4.133 255 249 219 3245 
14.989 1.53 4.128 255 249 219 3176 
14.989 1.53 4.124 255 249 219 3135 
14.988 1.532 4.121 255 248 216 3204 
14.988 1.532 4.117 255 248 216 3145 
14.989 1.532 4.112 255 248 216 3086 
14.989 1.531 4.107 255 248 216 3148 
14.989 1.531 4.104 255 248 216 3147 
14.989 1.531 4.099 255 249 217 3284 
14.989 1.532 4.096 255 248 216 3178 
14.991 1.529 4.088 255 249 217 3102 
14.99 1.531 4.086 255 248 218 3187 
14.99 1.531 4.082 255 248 218 3154 
14.99 1.53 4.077 255 250 220 3150 
14.99 1.531 4.074 255 251 222 3089 
14.99 1.532 4.07 255 250 221 3220 
14.99 1.531 4.065 255 250 221 3194 
14.99 1.531 4.062 255 251 222 3140 
14.991 1.529 4.054 255 251 220 3122 
14.992 1.528 4.05 255 251 222 3184 
14.991 1.531 4.048 255 250 221 3209 
14.991 1.53 4.043 255 249 222 3093 
14.991 1.53 4.04 255 251 224 3192 
14.991 1.53 4.035 255 252 223 3043 
14.989 1.533 4.035 255 249 221 3062 
14.991 1.531 4.027 255 248 218 3130 
14.991 1.53 4.023 255 248 218 3230 
14.992 1.529 4.017 255 249 219 3145 
14.992 1.529 4.013 255 249 219 3176 
14.991 1.531 4.011 255 248 218 3204 
14.992 1.53 4.006 255 248 218 3172 
14.991 1.531 4.003 255 247 217 3139 
14.994 1.527 3.994 255 247 215 3192 
14.991 1.532 3.996 255 247 215 3117 
14.993 1.529 3.988 255 248 216 3111 
14.992 1.53 3.986 255 248 216 3198 
14.992 1.531 3.982 255 248 216 3167 
14.992 1.53 3.978 255 248 218 3159 
14.992 1.53 3.974 255 248 218 3176 
14.992 1.53 3.97 255 248 218 3173 
14.991 1.532 3.968 255 248 218 3151 
14.992 1.531 3.962 255 248 218 3197 
14.993 1.53 3.957 255 248 218 3073 
14.994 1.529 3.951 255 247 217 3135 
14.992 1.532 3.951 255 248 216 3136 
14.993 1.53 3.945 255 248 216 3109 
14.993 1.53 3.94 255 248 216 3152 
14.993 1.53 3.936 255 248 216 3186 
14.994 1.529 3.931 255 248 216 3171 
14.994 1.529 3.927 255 248 216 3056 
14.995 1.528 3.922 255 248 216 3211 
14.994 1.529 3.92 255 248 216 3200 
14.994 1.528 3.914 255 247 215 3154 
14.993 1.531 3.913 255 247 215 3167 
14.994 1.53 3.908 255 248 216 3234 
14.994 1.53 3.904 255 248 216 3250 
14.994 1.53 3.9 255 248 216 3146 
14.993 1.53 3.897 255 248 216 3189 
14.994 1.53 3.892 255 247 215 3150 
14.994 1.531 3.889 255 247 215 3197 
14.994 1.53 3.884 255 248 216 3075 
14.995 1.529 3.88 255 247 215 3144 
14.994 1.53 3.876 255 247 215 3162 
14.994 1.53 3.873 255 247 215 3240 
14.995 1.529 3.867 255 246 216 3171 
14.996 1.527 3.861 255 246 216 3156 
14.996 1.528 3.858 255 247 217 3153 
14.997 1.526 3.852 255 248 218 3142 
14.995 1.53 3.852 255 248 218 3117 
14.995 1.53 3.849 255 247 217 3192 
14.996 1.528 3.843 255 247 217 3198 
14.994 1.532 3.843 255 248 218 3143 
14.995 1.531 3.838 255 248 218 3221 
14.995 1.531 3.834 255 248 220 3144 
14.997 1.527 3.826 255 248 220 3143 
14.996 1.529 3.825 255 248 216 3202 
14.995 1.53 3.821 255 247 212 3229 
14.996 1.529 3.816 255 247 212 3189 
14.995 1.53 3.814 255 246 214 3196 
14.995 1.53 3.81 255 247 217 3218 
14.996 1.529 3.805 255 247 217 3227 
14.998 1.527 3.798 255 248 218 3179 
14.995 1.531 3.799 255 248 218 3261 
14.999 1.526 3.789 255 248 218 3264 
14.995 1.531 3.791 255 247 217 3114 
14.996 1.53 3.785 255 247 217 3279 
14.996 1.531 3.783 255 248 218 3167 
14.995 1.532 3.78 255 248 218 3268 
14.995 1.532 3.777 255 248 218 3205 
14.995 1.533 3.774 255 248 218 3153 
14.996 1.531 3.768 255 248 218 3134 
14.996 1.531 3.764 255 248 218 3188 
14.997 1.529 3.759 255 248 218 3145 
14.996 1.531 3.756 255 248 218 3130 
14.997 1.529 3.751 255 247 215 3215 
14.996 1.531 3.749 255 247 215 3170 
14.997 1.53 3.744 255 247 215 3184 
14.997 1.53 3.739 255 247 212 3161 
14.997 1.53 3.736 255 246 211 3172 
14.998 1.528 3.731 255 245 213 3161 
14.997 1.53 3.729 255 246 214 3176 
14.999 1.528 3.722 255 246 214 3142 
14.997 1.53 3.72 255 246 214 3243 
14.998 1.529 3.716 255 246 214 3127 
14.996 1.532 3.715 255 246 214 3130 
14.997 1.531 3.711 255 246 214 3162 
14.997 1.531 3.707 255 246 212 3193 
14.997 1.531 3.703 255 246 212 3264 
14.998 1.529 3.697 255 246 212 3218 
14.998 1.53 3.694 255 245 211 3204 
14.997 1.532 3.692 255 245 211 3223 
14.997 1.532 3.688 255 245 211 3175 
14.998 1.53 3.683 255 245 211 3126 
14.998 1.53 3.679 255 246 214 3145 
14.998 1.531 3.676 255 246 214 3205 
14.999 1.529 3.671 255 247 215 3207 
14.998 1.531 3.668 255 247 217 3176 
14.998 1.53 3.663 255 246 216 3147 
14.998 1.531 3.661 255 246 216 3073 
14.998 1.53 3.656 255 246 216 3140 
14.997 1.532 3.655 255 247 217 3180 
14.998 1.531 3.65 255 247 217 3142 
14.997 1.533 3.648 255 247 215 3152 
14.997 1.533 3.644 255 247 215 3159 
14.998 1.532 3.64 255 246 214 3139 
14.997 1.532 3.636 255 247 215 3159 
14.999 1.53 3.631 255 247 215 3209 
14.998 1.533 3.629 255 246 214 3137 
15 1.529 3.622 255 246 214 3138 
14.999 1.53 3.619 255 246 214 3179 
14.999 1.53 3.615 255 246 214 3192 
14.999 1.53 3.612 255 246 214 3145 
15 1.529 3.607 255 246 214 3197 
15 1.529 3.603 255 246 214 3162 
14.999 1.531 3.601 255 245 211 3080 
15 1.53 3.597 255 246 212 3193 
14.998 1.532 3.596 255 247 215 3079 
14.998 1.532 3.592 255 247 219 3117 
14.999 1.532 3.587 255 247 220 3216 
14.999 1.531 3.583 255 248 223 3173 
14.998 1.532 3.581 255 249 224 3205 
14.998 1.533 3.578 255 249 224 3156 
14.999 1.532 3.573 255 249 224 3157 
14.998 1.533 3.571 255 249 220 3161 
15 1.53 3.564 255 247 217 3123 
15 1.531 3.562 255 246 214 3198 
15 1.53 3.557 255 246 216 3089 
15 1.531 3.554 255 247 219 3065 
15.001 1.53 3.549 255 247 219 3103 
15.001 1.53 3.546 255 247 219 3167 
15.001 1.53 3.542 255 246 216 3184 
15 1.531 3.539 255 246 214 3140 
14.999 1.534 3.539 255 247 212 3209 
15.001 1.531 3.531 255 246 214 3182 
15.001 1.531 3.528 255 246 214 3147 
15.001 1.531 3.525 255 246 214 3087 
15.001 1.531 3.521 255 246 212 3070 
15 1.532 3.519 255 245 211 3213 
15 1.532 3.515 255 245 211 3128 
15.001 1.531 3.51 255 245 211 3110 
15 1.533 3.509 255 245 211 3169 
15.001 1.531 3.503 255 245 211 3180 
15.001 1.531 3.5 255 245 211 3168 
15.002 1.529 3.494 255 247 212 3192 
15.002 1.53 3.491 255 245 213 3179 
15.002 1.53 3.488 255 245 213 3238 
15.003 1.529 3.483 255 246 211 3248 
15.001 1.531 3.482 255 246 211 3171 
15.002 1.529 3.476 255 245 213 3234 
15.001 1.531 3.474 255 245 213 3135 
15.001 1.531 3.471 255 245 211 3172 
15 1.533 3.469 255 245 211 3152 
15.001 1.532 3.465 255 243 209 3185 
15.001 1.532 3.461 255 243 208 3198 
15 1.533 3.458 255 244 206 3178 
15 1.533 3.455 255 245 210 3075 
15.002 1.531 3.45 255 245 210 3105 
15.001 1.532 3.447 255 244 209 3112 
15.002 1.531 3.442 255 245 210 3140 
15.002 1.53 3.438 255 245 211 3230 
15.001 1.532 3.437 255 245 211 3227 
15.002 1.531 3.432 255 245 211 3184 
15.003 1.53 3.427 255 245 211 3190 
15.002 1.532 3.426 255 245 211 3135 
15.003 1.53 3.421 255 245 211 3171 
15.002 1.531 3.417 255 245 210 3188 
15.003 1.53 3.413 255 245 210 3185 
15.002 1.532 3.412 255 244 209 3154 
15.002 1.532 3.409 255 244 209 3130 
15.002 1.532 3.404 255 244 209 3077 
15 1.535 3.405 255 244 209 3050 
15.002 1.532 3.398 255 244 209 3167 
15.001 1.533 3.396 255 244 209 3089 
15.002 1.532 3.391 255 244 209 3073 
15.002 1.533 3.388 255 245 210 3114 
15.005 1.528 3.379 255 245 211 3169 
15.003 1.532 3.38 255 245 211 3132 
15.004 1.53 3.374 255 245 211 3126 
15.003 1.532 3.373 255 245 211 3151 
15.002 1.533 3.371 255 245 211 3202 
15.004 1.531 3.365 255 245 211 3202 
15.002 1.533 3.364 255 245 211 3202 
15.004 1.531 3.358 255 245 211 3167 
15.003 1.532 3.356 255 245 211 3160 
15.005 1.529 3.349 255 245 211 3032 
15.003 1.532 3.349 255 245 211 3081 
15.003 1.532 3.345 255 244 210 3118 
15.001 1.535 3.345 255 244 209 3176 
15.003 1.533 3.34 255 244 209 3098 
15.002 1.534 3.337 255 243 205 3169 
15.003 1.532 3.332 255 244 206 3252 
15.005 1.53 3.326 255 243 208 3088 
15.003 1.532 3.325 255 244 209 3101 
15.004 1.531 3.32 255 244 209 3151 
15.004 1.531 3.317 255 245 211 3184 
15.004 1.532 3.314 255 245 211 3157 
15.004 1.532 3.311 255 245 211 3109 
15.004 1.532 3.308 255 244 210 3110 
15.004 1.532 3.304 255 244 210 3196 
15.004 1.533 3.301 255 244 209 3160 
15.005 1.531 3.296 255 244 209 3111 
15.003 1.533 3.295 255 244 209 3094 
15.004 1.533 3.291 255 243 208 3196 
15.003 1.534 3.289 255 243 208 3140 
15.003 1.534 3.285 255 244 206 3181 
15.003 1.534 3.283 255 243 208 3175 
15.004 1.532 3.277 255 243 208 3209 
15.004 1.534 3.275 255 243 208 3176 
15.004 1.534 3.272 255 244 206 3172 
15.004 1.532 3.267 255 242 205 3110 
15.005 1.532 3.264 255 243 206 3132 
15.004 1.533 3.26 255 244 209 3094 
15.004 1.533 3.257 255 245 207 3094 
15.003 1.534 3.255 255 244 210 3175 
14.98 1.531 4.27 255 249 219 3126 
14.98 1.532 4.268 255 249 219 3152 
14.98 1.531 4.262 255 249 219 3193 
14.979 1.532 4.258 255 249 219 3185 
14.981 1.53 4.252 255 250 220 3115 
14.981 1.53 4.247 255 252 223 3163 
14.981 1.531 4.244 255 252 223 3172 
14.981 1.531 4.24 255 252 223 3140 
14.981 1.531 4.235 255 252 223 3137 
14.982 1.53 4.229 255 251 220 3195 
14.981 1.531 4.226 255 250 220 3265 
14.981 1.532 4.223 255 250 220 3092 
14.981 1.531 4.218 255 249 219 3240 
14.98 1.534 4.217 255 249 219 3211 
14.981 1.532 4.21 255 249 219 3134 
14.981 1.532 4.206 255 249 219 3151 
14.982 1.531 4.2 255 249 219 3194 
14.98 1.534 4.199 255 249 219 3214 
14.982 1.531 4.191 255 249 219 3178 
14.98 1.533 4.19 255 249 219 3173 
14.982 1.531 4.183 255 249 219 3200 
14.981 1.533 4.181 255 249 219 3209 
14.981 1.533 4.177 255 250 222 3170 
14.982 1.532 4.171 255 250 222 3236 
14.981 1.533 4.168 255 250 222 3192 
14.982 1.532 4.162 255 250 222 3295 
14.981 1.533 4.16 255 249 219 3189 
14.982 1.532 4.154 255 250 220 3139 
14.982 1.532 4.15 255 250 220 3185 
14.982 1.532 4.146 255 249 219 3207 
14.983 1.531 4.14 255 249 219 3131 
14.983 1.532 4.137 255 249 219 3082 
14.982 1.532 4.133 255 249 219 3184 
14.982 1.532 4.129 255 249 219 3148 
14.982 1.532 4.125 255 250 220 3145 
14.981 1.534 4.122 255 249 219 3051 
14.983 1.531 4.114 255 249 219 3213 
14.982 1.534 4.114 255 249 219 3090 
14.983 1.532 4.107 255 249 219 3163 
14.982 1.533 4.105 255 250 218 3241 
14.984 1.53 4.097 255 249 219 3220 
14.983 1.533 4.095 255 249 219 3187 
14.983 1.532 4.091 255 249 219 3177 
14.984 1.531 4.085 255 249 219 3284 
14.983 1.532 4.082 255 248 218 3189 
14.983 1.532 4.078 255 248 218 3140 
14.983 1.532 4.074 255 249 219 3121 
14.984 1.531 4.068 255 249 219 3146 
14.983 1.533 4.066 255 248 218 3160 
14.984 1.531 4.06 255 248 218 3145 
14.983 1.533 4.058 255 248 218 3104 
14.984 1.532 4.053 255 248 218 3113 
14.983 1.533 4.05 255 249 219 3126 
14.984 1.532 4.045 255 249 219 3087 
14.985 1.531 4.04 255 248 218 3186 
14.984 1.532 4.037 255 247 217 3148 
14.985 1.531 4.031 255 247 215 3202 
14.984 1.533 4.029 255 248 216 3173 
14.985 1.53 4.022 255 248 216 3223 
14.985 1.532 4.02 255 248 216 3220 
14.986 1.53 4.013 255 248 216 3205 
14.984 1.533 4.013 255 248 216 3250 
14.985 1.532 4.006 255 247 215 3142 
14.986 1.531 4.002 255 248 216 3169 
14.985 1.532 3.999 255 248 216 3113 
14.986 1.53 3.993 255 248 216 3151 
14.986 1.531 3.99 255 248 218 3180 
14.986 1.531 3.986 255 248 218 3209 
14.985 1.533 3.983 255 248 218 3175 
14.986 1.531 3.978 255 248 218 3204 
14.985 1.532 3.975 255 248 218 3192 
14.985 1.533 3.971 255 248 218 3181 
14.986 1.532 3.966 255 248 218 3096 
14.986 1.531 3.961 255 248 218 3188 
14.986 1.532 3.958 255 248 218 3153 
14.987 1.53 3.952 255 248 216 3246 
14.986 1.532 3.95 255 248 216 3192 
14.986 1.532 3.946 255 248 216 3195 
14.987 1.531 3.94 255 248 216 3153 
14.987 1.531 3.937 255 248 216 3138 
14.988 1.529 3.93 255 248 216 3169 
14.988 1.53 3.928 255 248 216 3171 
14.988 1.53 3.924 255 248 216 3142 
14.988 1.531 3.92 255 248 216 3162 
14.988 1.531 3.916 255 248 216 3236 
14.987 1.531 3.913 255 247 215 3139 
14.986 1.533 3.91 255 248 216 3131 
14.987 1.531 3.905 255 248 216 3142 
14.987 1.532 3.902 255 247 215 3272 
14.988 1.53 3.896 255 248 216 3205 
14.988 1.531 3.893 255 248 216 3100 
14.988 1.53 3.888 255 248 216 3159 
14.989 1.53 3.883 255 247 215 3241 
14.987 1.533 3.882 255 248 216 3247 
14.989 1.53 3.875 255 248 216 3196 
14.989 1.529 3.87 255 247 215 3173 
14.989 1.53 3.867 255 247 215 3185 
14.988 1.531 3.865 255 247 217 3186 
14.989 1.53 3.859 255 248 218 3206 
14.988 1.532 3.857 255 248 218 3075 
14.988 1.531 3.853 255 248 218 3165 
14.988 1.532 3.85 255 248 218 3286 
14.987 1.534 3.849 255 248 218 3193 
14.989 1.531 3.84 255 248 218 3142 
14.989 1.531 3.837 255 248 218 3211 
14.99 1.53 3.832 255 248 218 3186 
14.989 1.531 3.829 255 248 218 3182 
14.989 1.531 3.825 255 247 217 3181 
14.988 1.533 3.823 255 247 215 3198 
14.988 1.533 3.819 255 247 215 3188 
14.99 1.53 3.812 255 247 215 3234 
14.989 1.531 3.81 255 246 212 3178 
14.99 1.53 3.805 255 246 212 3171 
14.988 1.533 3.804 255 247 215 3218 
14.99 1.53 3.797 255 247 215 3137 
14.99 1.531 3.794 255 246 214 3146 
14.989 1.531 3.791 255 246 214 3261 
14.99 1.531 3.787 255 247 212 3185 
14.989 1.532 3.784 255 245 210 3270 
14.989 1.532 3.78 255 245 210 3134 
14.989 1.533 3.776 255 248 218 3154 
14.991 1.53 3.769 255 246 212 3122 
14.989 1.532 3.768 255 246 214 3169 
14.991 1.53 3.762 255 246 214 3121 
14.991 1.53 3.758 255 247 215 3200 
14.99 1.531 3.756 255 247 215 3081 
14.99 1.531 3.752 255 247 215 3195 
14.99 1.532 3.748 255 247 215 3115 
14.99 1.531 3.744 255 247 215 3245 
14.989 1.533 3.743 255 246 214 3196 
14.991 1.531 3.736 255 246 211 3194 
14.99 1.532 3.733 255 247 212 3238 
14.991 1.531 3.728 255 247 212 3109 
14.991 1.532 3.725 255 246 214 3065 
14.991 1.531 3.721 255 246 214 3096 
14.989 1.535 3.721 255 248 213 3094 
14.991 1.532 3.714 255 246 212 3117 
14.991 1.532 3.71 255 246 211 3148 
14.991 1.532 3.707 255 245 210 3175 
14.991 1.531 3.702 255 247 213 3206 
14.991 1.532 3.699 255 246 212 3160 
14.99 1.534 3.697 255 246 212 3151 
14.991 1.532 3.691 255 247 215 3193 
14.991 1.532 3.688 255 246 214 3202 
14.99 1.534 3.686 255 246 216 3150 
14.993 1.529 3.677 255 248 219 3163 
14.991 1.533 3.677 255 250 221 3211 
14.993 1.53 3.67 255 249 220 3131 
14.991 1.532 3.669 255 248 217 3240 
14.992 1.532 3.665 255 246 211 3214 
14.992 1.532 3.661 255 245 213 3167 
14.991 1.533 3.658 255 246 214 3193 
14.992 1.532 3.653 255 246 214 3190 
14.992 1.532 3.65 255 246 214 3121 
14.992 1.532 3.647 255 246 214 3134 
14.991 1.534 3.644 255 247 212 3176 
14.992 1.532 3.639 255 247 211 3178 
14.991 1.534 3.638 255 246 210 3184 
14.993 1.531 3.63 255 245 213 3184 
14.992 1.532 3.628 255 246 214 3163 
14.993 1.53 3.622 255 246 214 3163 
14.994 1.53 3.618 255 247 212 3097 
14.993 1.532 3.616 255 247 212 3153 
14.993 1.531 3.611 255 246 212 3143 
14.993 1.532 3.609 255 245 210 3110 
14.993 1.532 3.605 255 243 208 3126 
14.992 1.533 3.603 255 243 208 3126 
14.992 1.533 3.599 255 245 211 3154 
14.992 1.534 3.596 255 247 217 3156 
14.992 1.533 3.591 255 248 220 3189 
14.993 1.533 3.588 255 249 224 3163 
14.993 1.532 3.583 255 248 226 3161 
14.992 1.534 3.581 255 249 227 3160 
14.992 1.534 3.578 255 249 224 3078 
14.993 1.532 3.572 255 249 222 3061 
14.994 1.532 3.568 255 249 220 3156 
14.993 1.533 3.566 255 246 216 3122 
14.995 1.529 3.558 255 245 213 3215 
14.994 1.531 3.557 255 246 214 3176 
14.995 1.53 3.551 255 246 214 3165 
14.994 1.532 3.55 255 246 216 3215 
14.995 1.53 3.545 255 246 216 3151 
14.993 1.534 3.545 255 246 214 3146 
14.994 1.532 3.539 255 247 212 3117 
14.994 1.532 3.535 255 247 212 3144 
14.994 1.532 3.532 255 246 214 3098 
14.994 1.532 3.529 255 245 213 3189 
14.994 1.532 3.525 255 246 214 3046 
14.994 1.532 3.522 255 246 212 3168 
14.994 1.533 3.518 255 246 212 3128 
14.994 1.533 3.515 255 245 211 3218 
14.994 1.533 3.512 255 245 211 3092 
14.995 1.532 3.506 255 245 211 3127 
14.995 1.531 3.502 255 245 211 3106 
14.994 1.533 3.501 255 245 211 3180 
14.995 1.531 3.495 255 245 211 3175 
14.995 1.532 3.492 255 245 211 3148 
14.995 1.532 3.489 255 245 210 3126 
14.995 1.532 3.485 255 245 210 3184 
14.995 1.532 3.481 255 245 211 3256 
14.995 1.532 3.478 255 245 211 3177 
14.995 1.532 3.474 255 245 211 3162 
14.994 1.534 3.473 255 245 213 3151 
14.995 1.532 3.467 255 245 211 3089 
14.995 1.532 3.464 255 245 210 3096 
14.994 1.535 3.462 255 245 210 3190 
14.995 1.532 3.457 255 244 209 3110 
14.995 1.533 3.454 255 244 209 3230 
14.996 1.532 3.45 255 244 209 3180 
14.996 1.531 3.445 255 244 209 3138 
14.996 1.532 3.442 255 245 211 3151 
14.995 1.534 3.441 255 245 211 3184 
14.996 1.532 3.435 255 245 211 3185 
14.995 1.534 3.434 255 244 210 3167 
14.997 1.53 3.426 255 244 210 3113 
14.996 1.532 3.425 255 244 210 3147 
14.997 1.531 3.42 255 244 209 3143 
14.995 1.533 3.419 255 244 209 3188 
14.996 1.532 3.414 255 244 209 3085 
14.996 1.533 3.412 255 245 210 3084 
14.995 1.534 3.409 255 244 209 3061 
14.994 1.535 3.406 255 244 209 3131 
14.996 1.533 3.401 255 244 209 3019 
14.996 1.533 3.397 255 244 209 3153 
14.997 1.532 3.393 255 244 209 3159 
14.996 1.534 3.391 255 244 209 3089 
14.997 1.531 3.385 255 244 209 3162 
14.997 1.531 3.382 255 244 209 3088 
14.996 1.533 3.38 255 244 209 3177 
14.996 1.533 3.377 255 244 209 3180 
14.997 1.532 3.372 255 244 209 3184 
14.996 1.534 3.371 255 244 210 3117 
14.997 1.532 3.365 255 244 210 3268 
14.997 1.532 3.362 255 245 211 3207 
14.996 1.534 3.36 255 245 211 3143 
14.996 1.534 3.357 255 245 211 3136 
14.996 1.534 3.354 255 245 213 3094 
14.996 1.534 3.35 255 244 212 3076 
14.996 1.534 3.346 255 244 212 3102 
14.995 1.535 3.344 255 244 210 3164 
14.997 1.533 3.339 255 243 208 3159 
14.996 1.535 3.337 255 243 208 3154 
14.997 1.533 3.331 255 243 208 3130 
14.997 1.534 3.329 255 244 209 3247 
14.997 1.534 3.325 255 244 209 3161 
14.997 1.533 3.321 255 244 209 3168 
14.998 1.532 3.317 255 244 209 3090 
14.998 1.532 3.313 255 244 210 3098 
14.997 1.535 3.312 255 244 210 3117 
14.998 1.533 3.308 255 244 210 3188 
14.998 1.532 3.303 255 244 210 3169 
14.998 1.533 3.301 255 244 210 3170 
14.999 1.531 3.296 255 244 209 3042 
14.996 1.535 3.296 255 244 209 3076 
14.997 1.534 3.292 255 244 209 3209 
14.998 1.533 3.288 255 244 209 3055 
14.997 1.534 3.285 255 245 210 3111 
14.998 1.533 3.281 255 244 209 3109 
14.998 1.533 3.277 255 244 209 3178 
14.998 1.534 3.274 255 244 209 3043 
14.998 1.534 3.271 255 243 208 3168 
14.999 1.532 3.266 255 243 208 3143 
14.999 1.533 3.263 255 244 210 3169 
14.997 1.535 3.262 255 244 210 3160 
14.999 1.532 3.256 255 244 210 3202 
14.998 1.535 3.255 255 244 210 3156 
14.998 1.534 3.251 255 244 209 3102 
14.979 1.529 4.271 255 249 219 3150 
14.98 1.527 4.265 255 249 219 3156 
14.98 1.528 4.261 255 249 219 3192 
14.979 1.53 4.26 255 249 219 3197 
14.98 1.529 4.253 255 249 219 3184 
14.98 1.529 4.25 255 249 219 3162 
14.981 1.527 4.243 255 251 222 3165 
14.979 1.53 4.242 255 251 222 3211 
14.98 1.529 4.237 255 251 222 3128 
14.98 1.529 4.231 255 251 222 3186 
14.98 1.529 4.227 255 251 220 3243 
14.98 1.53 4.224 255 250 220 3137 
14.978 1.532 4.223 255 250 220 3193 
14.979 1.531 4.217 255 250 220 3211 
14.979 1.532 4.214 255 250 222 3148 
14.98 1.53 4.207 255 250 222 3157 
14.98 1.529 4.202 255 249 219 3189 
14.98 1.53 4.199 255 250 220 3250 
14.98 1.53 4.193 255 250 220 3231 
14.981 1.53 4.189 255 249 217 3215 
14.981 1.529 4.184 255 248 216 3192 
14.98 1.531 4.182 255 248 216 3243 
14.981 1.53 4.176 255 248 216 3220 
14.981 1.529 4.171 255 249 219 3200 
14.981 1.53 4.168 255 249 219 3215 
14.981 1.529 4.162 255 249 219 3284 
14.981 1.529 4.159 255 248 218 3196 
14.981 1.53 4.155 255 249 219 3135 
14.98 1.531 4.152 255 249 219 3179 
14.981 1.53 4.146 255 249 219 3167 
14.981 1.531 4.143 255 249 219 3153 
14.981 1.53 4.138 255 250 220 3048 
14.981 1.531 4.135 255 249 219 3192 
14.981 1.53 4.129 255 249 219 3175 
14.982 1.53 4.125 255 249 219 3126 
14.981 1.531 4.123 255 250 220 3165 
14.982 1.529 4.116 255 249 219 3192 
14.981 1.531 4.114 255 249 219 3165 
14.982 1.53 4.108 255 249 219 3134 
14.981 1.531 4.105 255 249 217 3250 
14.983 1.529 4.099 255 249 219 3207 
14.982 1.53 4.096 255 249 219 3202 
14.982 1.53 4.091 255 249 219 3184 
14.982 1.53 4.088 255 250 220 3286 
14.982 1.531 4.085 255 250 220 3177 
14.982 1.531 4.08 255 249 219 3129 
14.982 1.531 4.076 255 249 219 3117 
14.982 1.531 4.072 255 249 219 3112 
14.981 1.532 4.069 255 248 218 3168 
14.983 1.529 4.061 255 249 217 3120 
14.982 1.531 4.06 255 248 216 3104 
14.983 1.529 4.053 255 248 218 3163 
14.981 1.532 4.052 255 248 218 3138 
14.984 1.528 4.044 255 248 218 3128 
14.983 1.53 4.042 255 248 218 3192 
14.983 1.53 4.038 255 247 215 3176 
14.984 1.529 4.032 255 246 214 3211 
14.984 1.529 4.027 255 247 215 3213 
14.984 1.529 4.023 255 247 215 3194 
14.983 1.531 4.022 255 247 215 3259 
14.985 1.528 4.014 255 247 215 3163 
14.983 1.531 4.013 255 248 216 3225 
14.984 1.53 4.008 255 248 216 3184 
14.984 1.53 4.005 255 248 216 3161 
14.984 1.53 4 255 248 216 3143 
14.984 1.529 3.995 255 248 216 3177 
14.985 1.529 3.991 255 247 215 3202 
14.985 1.528 3.985 255 248 216 3221 
14.985 1.529 3.982 255 248 216 3177 
14.985 1.529 3.978 255 248 216 3227 
14.985 1.53 3.975 255 248 218 3160 
14.984 1.531 3.973 255 248 218 3236 
14.985 1.53 3.967 255 248 218 3134 
14.986 1.528 3.961 255 248 218 3184 
14.985 1.529 3.958 255 248 218 3151 
14.985 1.529 3.954 255 248 218 3261 
14.985 1.53 3.95 255 248 218 3205 
14.985 1.531 3.948 255 248 218 3184 
14.985 1.53 3.943 255 248 218 3140 
14.985 1.531 3.94 255 248 218 3122 
14.986 1.528 3.933 255 248 218 3170 
14.985 1.53 3.931 255 248 218 3130 
14.987 1.527 3.924 255 248 216 3121 
14.986 1.528 3.921 255 248 216 3147 
14.986 1.528 3.917 255 248 216 3213 
14.986 1.53 3.914 255 247 215 3165 
14.988 1.527 3.907 255 247 215 3167 
14.987 1.528 3.905 255 248 216 3169 
14.986 1.529 3.902 255 247 215 3261 
14.988 1.527 3.896 255 247 215 3264 
14.987 1.528 3.893 255 247 215 3062 
14.987 1.529 3.889 255 247 215 3171 
14.987 1.528 3.884 255 247 215 3225 
14.986 1.53 3.883 255 247 215 3225 
14.988 1.528 3.876 255 247 215 3184 
14.987 1.529 3.874 255 247 215 3135 
14.987 1.529 3.869 255 247 217 3177 
14.987 1.53 3.866 255 247 217 3209 
14.987 1.53 3.863 255 247 217 3175 
14.987 1.53 3.859 255 248 218 3110 
14.987 1.529 3.854 255 248 218 3170 
14.987 1.53 3.851 255 248 218 3279 
14.987 1.531 3.848 255 248 218 3225 
14.987 1.529 3.842 255 248 218 3156 
14.988 1.528 3.837 255 248 218 3176 
14.989 1.527 3.832 255 248 218 3232 
14.989 1.527 3.828 255 248 218 3192 
14.988 1.529 3.826 255 247 217 3200 
14.989 1.528 3.821 255 247 215 3214 
14.987 1.531 3.821 255 247 215 3187 
14.988 1.529 3.814 255 246 214 3243 
14.988 1.53 3.811 255 246 212 3176 
14.988 1.53 3.808 255 246 212 3170 
14.987 1.531 3.805 255 247 215 3209 
14.988 1.53 3.8 255 247 215 3134 
14.988 1.531 3.797 255 247 215 3102 
14.988 1.53 3.792 255 247 215 3248 
14.988 1.531 3.789 255 246 214 3163 
14.987 1.531 3.786 255 247 212 3234 
14.988 1.531 3.781 255 245 210 3169 
14.988 1.53 3.776 255 245 210 3162 
14.99 1.528 3.77 255 246 212 3140 
14.99 1.528 3.767 255 246 212 3190 
14.99 1.528 3.763 255 246 212 3146 
14.99 1.529 3.76 255 246 212 3177 
14.989 1.53 3.757 255 246 214 3078 
14.99 1.528 3.751 255 247 215 3192 
14.988 1.532 3.751 255 247 215 3121 
14.988 1.532 3.747 255 248 216 3241 
14.987 1.532 3.745 255 247 215 3195 
14.99 1.529 3.737 255 247 212 3161 
14.989 1.53 3.735 255 247 212 3200 
14.99 1.529 3.729 255 247 212 3142 
14.989 1.531 3.728 255 247 212 3086 
14.99 1.529 3.721 255 247 212 3102 
14.988 1.533 3.723 255 247 212 3142 
14.989 1.531 3.716 255 246 211 3172 
14.99 1.529 3.71 255 247 212 3159 
14.991 1.529 3.706 255 247 212 3194 
14.991 1.528 3.702 255 248 213 3189 
14.991 1.529 3.699 255 246 214 3134 
14.989 1.531 3.697 255 246 214 3160 
14.99 1.53 3.692 255 246 212 3170 
14.991 1.529 3.688 255 246 211 3241 
14.989 1.532 3.687 255 246 211 3176 
14.992 1.527 3.678 255 245 211 3173 
14.989 1.532 3.679 255 247 215 3168 
14.989 1.532 3.675 255 247 217 3076 
14.991 1.529 3.669 255 247 219 3222 
14.99 1.531 3.667 255 246 214 3211 
14.991 1.53 3.662 255 245 211 3175 
14.989 1.532 3.661 255 245 211 3161 
14.992 1.527 3.651 255 245 210 3182 
14.99 1.531 3.651 255 246 211 3110 
14.991 1.531 3.648 255 246 212 3110 
14.991 1.531 3.644 255 246 212 3220 
14.991 1.53 3.64 255 246 212 3162 
14.99 1.531 3.637 255 246 212 3200 
14.99 1.531 3.633 255 246 214 3164 
14.992 1.528 3.627 255 246 212 3200 
14.992 1.529 3.624 255 246 214 3093 
14.992 1.529 3.62 255 246 214 3100 
14.991 1.531 3.619 255 247 212 3167 
14.991 1.531 3.615 255 246 214 3142 
14.991 1.531 3.611 255 246 214 3095 
14.991 1.531 3.607 255 244 209 3089 
14.991 1.531 3.604 255 243 208 3114 
14.99 1.532 3.602 255 245 207 3156 
14.991 1.531 3.596 255 245 213 3175 
14.991 1.531 3.592 255 246 218 3167 
14.992 1.531 3.588 255 247 219 3195 
14.992 1.53 3.583 255 249 224 3130 
14.992 1.53 3.58 255 248 226 3196 
14.991 1.532 3.578 255 249 227 3088 
14.994 1.528 3.571 255 249 224 3068 
14.992 1.531 3.571 255 248 221 3184 
14.992 1.53 3.566 255 248 219 3175 
14.993 1.529 3.562 255 246 214 3189 
14.992 1.531 3.559 255 245 211 3151 
14.993 1.53 3.555 255 246 214 3125 
14.992 1.531 3.552 255 246 216 3194 
14.992 1.531 3.549 255 246 216 3126 
14.991 1.533 3.547 255 246 216 3152 
14.993 1.53 3.541 255 246 214 3131 
14.992 1.532 3.538 255 247 212 3107 
14.993 1.53 3.532 255 246 214 3117 
14.993 1.53 3.529 255 245 213 3179 
14.993 1.531 3.526 255 245 213 3085 
14.993 1.531 3.523 255 245 213 3161 
14.993 1.53 3.518 255 245 213 3154 
14.993 1.53 3.514 255 245 213 3288 
14.992 1.532 3.514 255 245 211 3171 
14.994 1.529 3.506 255 245 211 3146 
14.993 1.53 3.504 255 245 211 3068 
14.993 1.53 3.501 255 245 211 3169 
14.993 1.53 3.497 255 245 211 3125 
14.994 1.53 3.494 255 245 211 3090 
14.993 1.531 3.491 255 245 210 3101 
14.994 1.53 3.486 255 245 210 3176 
14.993 1.532 3.485 255 245 210 3184 
14.994 1.531 3.479 255 245 211 3195 
14.994 1.531 3.476 255 245 213 3147 
14.993 1.532 3.474 255 245 213 3168 
14.993 1.531 3.47 255 245 211 3105 
14.994 1.531 3.466 255 245 211 3161 
14.994 1.53 3.461 255 245 211 3160 
14.994 1.531 3.459 255 245 210 3134 
14.995 1.529 3.453 255 244 209 3240 
14.994 1.53 3.451 255 244 209 3167 
14.994 1.531 3.447 255 244 209 3134 
14.994 1.531 3.444 255 245 210 3125 
14.995 1.53 3.439 255 245 211 3200 
14.995 1.53 3.436 255 245 211 3190 
14.994 1.532 3.435 255 245 211 3171 
14.994 1.531 3.43 255 245 211 3084 
14.994 1.532 3.427 255 245 211 3115 
14.995 1.53 3.421 255 244 210 3130 
14.994 1.532 3.42 255 244 210 3173 
14.994 1.531 3.416 255 244 210 3085 
14.995 1.531 3.412 255 245 211 3093 
14.995 1.531 3.409 255 245 211 3072 
14.994 1.533 3.407 255 244 210 3120 
14.994 1.532 3.402 255 244 210 3062 
14.996 1.529 3.396 255 244 210 3168 
14.995 1.531 3.395 255 244 210 3159 
14.996 1.53 3.39 255 244 210 3138 
14.996 1.53 3.386 255 244 210 3135 
14.996 1.529 3.382 255 244 209 3114 
14.994 1.532 3.382 255 244 209 3167 
14.995 1.532 3.378 255 244 209 3182 
14.994 1.533 3.376 255 243 209 3150 
14.994 1.533 3.372 255 243 209 3142 
14.994 1.533 3.369 255 244 210 3204 
14.995 1.532 3.364 255 245 211 3232 
14.994 1.533 3.362 255 245 211 3123 
14.995 1.532 3.358 255 245 211 3145 
14.995 1.532 3.353 255 245 211 3093 
14.995 1.532 3.351 255 244 212 3105 
14.996 1.531 3.346 255 244 210 3101 
14.995 1.532 3.344 255 244 210 3144 
14.997 1.53 3.338 255 244 210 3190 
14.996 1.531 3.336 255 243 209 3177 
14.996 1.531 3.332 255 243 208 3095 
14.997 1.531 3.328 255 244 209 3266 
14.996 1.532 3.326 255 244 209 3188 
14.996 1.532 3.323 255 244 209 3151 
14.996 1.531 3.319 255 244 209 3073 
14.996 1.531 3.315 255 244 209 3089 
14.995 1.534 3.314 255 244 209 3093 
14.996 1.532 3.309 255 244 210 3153 
14.995 1.533 3.307 255 244 210 3145 
14.996 1.532 3.302 255 244 210 3168 
14.997 1.531 3.297 255 245 211 3032 
14.996 1.532 3.296 255 244 210 3051 
14.997 1.53 3.291 255 244 210 3182 
14.997 1.531 3.288 255 244 210 3093 
14.997 1.531 3.285 255 244 210 3147 
14.998 1.53 3.28 255 244 209 3109 
14.998 1.53 3.277 255 244 209 3198 
14.997 1.531 3.274 255 244 209 3080 
14.998 1.53 3.27 255 243 208 3165 
14.998 1.53 3.267 255 242 207 3154 
14.997 1.531 3.264 255 243 208 3173 
14.996 1.533 3.263 255 244 209 3153 
14.997 1.532 3.258 255 243 208 3181 
14.996 1.534 3.256 255 243 208 3165 
14.997 1.532 3.251 255 243 208 3117 
14.974 1.529 4.27 255 249 219 3218 
14.974 1.53 4.266 255 249 219 3153 
14.974 1.53 4.262 255 250 220 3218 
14.973 1.531 4.259 255 249 219 3144 
14.974 1.529 4.252 255 249 219 3288 
14.973 1.531 4.25 255 251 222 3151 
14.973 1.531 4.246 255 251 222 3030 
14.973 1.531 4.241 255 251 222 3134 
14.973 1.531 4.237 255 251 222 3245 
14.974 1.531 4.232 255 252 223 3245 
14.974 1.531 4.229 255 252 223 3194 
14.974 1.531 4.223 255 251 220 3213 
14.974 1.531 4.22 255 251 220 3163 
14.974 1.531 4.215 255 250 222 3154 
14.975 1.53 4.21 255 249 221 3234 
14.975 1.529 4.205 255 249 219 3214 
14.974 1.532 4.203 255 249 219 3277 
14.975 1.53 4.196 255 249 219 3223 
14.975 1.531 4.193 255 250 220 3222 
14.975 1.53 4.188 255 249 219 3243 
14.975 1.53 4.183 255 249 219 3268 
14.973 1.533 4.184 255 248 216 3160 
14.974 1.532 4.178 255 249 219 3185 
14.974 1.532 4.173 255 249 219 3138 
14.974 1.533 4.17 255 249 219 3204 
14.975 1.531 4.163 255 248 218 3187 
14.974 1.532 4.161 255 248 218 3173 
14.975 1.531 4.154 255 249 217 3207 
14.975 1.532 4.151 255 248 216 3190 
14.975 1.532 4.147 255 248 216 3181 
14.975 1.532 4.142 255 248 216 3151 
14.976 1.53 4.136 255 248 216 3195 
14.975 1.532 4.134 255 248 216 3172 
14.976 1.53 4.128 255 248 216 3216 
14.976 1.53 4.124 255 248 218 3154 
14.976 1.53 4.12 255 249 219 3211 
14.976 1.53 4.115 255 248 218 3192 
14.974 1.534 4.116 255 248 216 3167 
14.976 1.531 4.108 255 248 216 3192 
14.975 1.532 4.105 255 248 218 3077 
14.976 1.531 4.099 255 248 218 3118 
14.976 1.531 4.095 255 248 218 3052 
14.976 1.531 4.091 255 248 218 3216 
14.976 1.532 4.088 255 248 218 3165 
14.976 1.532 4.083 255 248 218 3136 
14.976 1.533 4.08 255 248 218 3171 
14.977 1.531 4.074 255 248 218 3180 
14.977 1.53 4.069 255 247 217 3161 
14.977 1.53 4.065 255 248 216 3096 
14.978 1.529 4.06 255 248 216 3152 
14.977 1.531 4.057 255 248 216 3197 
14.978 1.53 4.052 255 247 215 3168 
14.978 1.53 4.048 255 248 216 3098 
14.978 1.531 4.045 255 248 216 3184 
14.977 1.532 4.042 255 248 216 3161 
14.978 1.531 4.036 255 249 214 3142 
14.977 1.531 4.032 255 249 214 3144 
14.977 1.532 4.03 255 248 216 3060 
14.978 1.531 4.024 255 247 215 3156 
14.976 1.534 4.024 255 247 215 3160 
14.977 1.532 4.017 255 247 215 3215 
14.975 1.536 4.018 255 248 216 3167 
14.977 1.532 4.009 255 248 216 3182 
14.978 1.532 4.004 255 248 216 3207 
14.979 1.53 3.998 255 248 216 3154 
14.98 1.529 3.993 255 248 216 3186 
14.979 1.531 3.991 255 248 216 3092 
14.979 1.53 3.986 255 248 216 3156 
14.979 1.53 3.982 255 248 216 3181 
14.979 1.531 3.978 255 248 218 3168 
14.979 1.531 3.975 255 248 218 3234 
14.979 1.53 3.97 255 248 218 3094 
14.979 1.531 3.966 255 248 218 3156 
14.979 1.532 3.963 255 249 219 3176 
14.98 1.53 3.957 255 249 219 3120 
14.98 1.531 3.954 255 249 219 3187 
14.979 1.531 3.95 255 248 218 3193 
14.979 1.532 3.947 255 248 218 3211 
14.98 1.531 3.942 255 248 218 3270 
14.981 1.529 3.936 255 247 217 3238 
14.98 1.53 3.933 255 247 217 3176 
14.98 1.531 3.93 255 248 218 3167 
14.98 1.531 3.926 255 248 218 3238 
14.981 1.529 3.92 255 248 218 3153 
14.978 1.533 3.921 255 248 218 3156 
14.982 1.529 3.911 255 247 217 3200 
14.981 1.53 3.909 255 247 215 3236 
14.981 1.529 3.904 255 247 215 3259 
14.981 1.529 3.9 255 247 215 3197 
14.98 1.531 3.898 255 248 216 3178 
14.98 1.532 3.896 255 248 218 3103 
14.98 1.532 3.892 255 248 218 3254 
14.981 1.53 3.885 255 248 218 3109 
14.98 1.532 3.883 255 248 218 3086 
14.981 1.53 3.877 255 248 218 3123 
14.981 1.53 3.873 255 248 218 3213 
14.983 1.527 3.866 255 248 218 3211 
14.982 1.529 3.864 255 248 218 3096 
14.982 1.529 3.861 255 248 218 3207 
14.982 1.53 3.857 255 247 217 3121 
14.982 1.529 3.852 255 247 217 3169 
14.982 1.53 3.849 255 247 217 3207 
14.981 1.531 3.846 255 247 215 3176 
14.982 1.53 3.841 255 247 215 3126 
14.983 1.529 3.836 255 247 215 3147 
14.983 1.528 3.831 255 247 215 3300 
14.982 1.531 3.831 255 248 216 3197 
14.982 1.531 3.827 255 248 213 3175 
14.982 1.53 3.822 255 247 212 3159 
14.981 1.532 3.82 255 246 212 3165 
14.982 1.531 3.815 255 246 212 3229 
14.981 1.532 3.812 255 246 214 3204 
14.981 1.533 3.809 255 246 214 3159 
14.983 1.53 3.802 255 247 215 3211 
14.983 1.53 3.798 255 248 213 3178 
14.984 1.529 3.793 255 248 213 3117 
14.982 1.531 3.792 255 248 213 3176 
14.982 1.531 3.788 255 247 212 3138 
14.984 1.53 3.782 255 246 212 3173 
14.982 1.532 3.781 255 246 212 3259 
14.984 1.528 3.773 255 246 214 3230 
14.984 1.53 3.771 255 246 214 3145 
14.984 1.53 3.767 255 246 214 3230 
14.983 1.531 3.764 255 247 215 3185 
14.983 1.531 3.761 255 247 215 3119 
14.982 1.532 3.758 255 246 214 3173 
14.982 1.533 3.755 255 246 214 3128 
14.984 1.53 3.748 255 247 215 3238 
14.983 1.531 3.745 255 247 215 3096 
14.984 1.529 3.739 255 247 212 3052 
14.983 1.532 3.738 255 247 212 3056 
14.985 1.529 3.732 255 247 212 3055 
14.985 1.529 3.727 255 247 212 3109 
14.984 1.53 3.725 255 247 212 3140 
14.983 1.532 3.724 255 248 213 3143 
14.984 1.531 3.719 255 247 212 3088 
14.984 1.53 3.714 255 247 212 3159 
14.984 1.53 3.71 255 247 212 3227 
14.985 1.53 3.706 255 247 212 3198 
14.983 1.532 3.705 255 246 214 3069 
14.985 1.53 3.698 255 247 212 3070 
14.983 1.532 3.697 255 246 212 3117 
14.984 1.531 3.692 255 245 210 3214 
14.983 1.533 3.691 255 245 210 3192 
14.984 1.532 3.686 255 245 211 3176 
14.984 1.531 3.681 255 246 212 3150 
14.985 1.531 3.677 255 247 215 3135 
14.984 1.533 3.675 255 247 217 3211 
14.985 1.531 3.669 255 247 215 3142 
14.985 1.531 3.665 255 246 212 3229 
14.984 1.532 3.662 255 245 211 3156 
14.984 1.533 3.66 255 245 211 3222 
14.985 1.532 3.655 255 245 211 3236 
14.985 1.53 3.65 255 246 212 3175 
14.986 1.53 3.646 255 246 212 3184 
14.985 1.531 3.643 255 246 212 3200 
14.985 1.532 3.64 255 246 214 3293 
14.984 1.533 3.638 255 246 214 3204 
14.984 1.533 3.634 255 246 212 3162 
14.985 1.532 3.629 255 246 212 3128 
14.986 1.531 3.624 255 246 212 3110 
14.985 1.533 3.622 255 247 212 3179 
14.986 1.531 3.617 255 247 212 3222 
14.986 1.532 3.614 255 247 212 3110 
14.986 1.531 3.61 255 245 211 3245 
14.984 1.534 3.608 255 245 210 3117 
14.985 1.532 3.603 255 246 208 3206 
14.986 1.532 3.599 255 245 208 3112 
14.985 1.532 3.596 255 245 210 3213 
14.986 1.531 3.591 255 245 210 3205 
14.986 1.531 3.587 255 246 214 3195 
14.986 1.532 3.584 255 249 220 3211 
14.985 1.533 3.582 255 248 223 3109 
14.985 1.534 3.579 255 250 225 3165 
14.985 1.533 3.574 255 249 222 3100 
14.986 1.533 3.571 255 247 219 3202 
14.985 1.533 3.567 255 248 217 3050 
14.986 1.533 3.563 255 247 217 3065 
14.987 1.531 3.558 255 247 215 3275 
14.987 1.531 3.554 255 246 214 3218 
14.988 1.53 3.549 255 246 211 3160 
14.987 1.532 3.547 255 246 211 3204 
14.988 1.53 3.542 255 247 212 3173 
14.986 1.533 3.542 255 247 212 3151 
14.987 1.531 3.537 255 246 214 3213 
14.987 1.531 3.532 255 246 214 3194 
14.987 1.531 3.529 255 246 212 3048 
14.987 1.531 3.526 255 245 211 3122 
14.987 1.532 3.522 255 245 211 3106 
14.987 1.532 3.519 255 245 211 3204 
14.987 1.532 3.515 255 245 211 3172 
14.986 1.533 3.513 255 245 211 3229 
14.987 1.532 3.509 255 245 211 3182 
14.987 1.532 3.505 255 245 211 3140 
14.986 1.534 3.503 255 245 211 3140 
14.987 1.532 3.497 255 245 211 3182 
14.989 1.53 3.491 255 245 210 3189 
14.988 1.532 3.49 255 245 211 3130 
14.989 1.53 3.484 255 245 211 3180 
14.987 1.532 3.484 255 245 211 3170 
14.988 1.532 3.479 255 245 211 3197 
14.988 1.532 3.475 255 245 211 3068 
14.988 1.532 3.471 255 246 212 3187 
14.988 1.533 3.469 255 245 211 3138 
14.988 1.532 3.465 255 245 211 3215 
14.988 1.532 3.462 255 245 210 3153 
14.988 1.533 3.458 255 245 211 3202 
14.989 1.531 3.453 255 245 211 3211 
14.988 1.533 3.451 255 245 211 3117 
14.988 1.533 3.448 255 245 211 3134 
14.989 1.532 3.443 255 245 211 3192 
14.989 1.531 3.439 255 244 210 3167 
14.988 1.533 3.438 255 245 211 3170 
14.989 1.531 3.432 255 245 211 3206 
14.988 1.532 3.43 255 245 213 3204 
14.989 1.532 3.426 255 245 213 3125 
14.989 1.531 3.421 255 246 211 3265 
14.989 1.532 3.419 255 245 211 3161 
14.989 1.533 3.416 255 246 212 3254 
14.989 1.531 3.411 255 245 211 3186 
14.989 1.531 3.408 255 244 210 3140 
14.987 1.536 3.409 255 244 210 3146 
14.989 1.532 3.401 255 245 211 3170 
14.988 1.534 3.399 255 244 210 3125 
14.99 1.531 3.393 255 245 213 3178 
14.99 1.531 3.39 255 245 213 3094 
14.989 1.532 3.388 255 245 213 3095 
14.989 1.533 3.385 255 245 211 3192 
14.989 1.532 3.381 255 245 210 3145 
14.989 1.533 3.378 255 244 206 3155 
14.989 1.533 3.375 255 244 206 3126 
14.989 1.534 3.372 255 245 210 3165 
14.989 1.534 3.368 255 245 211 3185 
14.99 1.532 3.363 255 245 211 3100 
14.991 1.531 3.358 255 245 211 3067 
14.99 1.532 3.356 255 244 210 3131 
14.989 1.534 3.354 255 244 210 3185 
14.99 1.533 3.349 255 244 210 3204 
14.99 1.533 3.346 255 244 210 3197 
14.989 1.534 3.345 255 244 210 3180 
14.989 1.533 3.34 255 244 209 3119 
14.991 1.531 3.335 255 244 209 3084 
14.99 1.533 3.333 255 244 209 3145 
14.989 1.535 3.331 255 243 208 3095 
14.99 1.533 3.325 255 244 206 3123 
14.989 1.534 3.323 255 244 206 3180 
14.99 1.533 3.319 255 244 210 3189 
14.99 1.533 3.316 255 244 210 3178 
14.99 1.533 3.312 255 244 209 3161 
14.991 1.531 3.307 255 244 209 3207 
14.99 1.533 3.305 255 244 209 3187 
14.991 1.532 3.301 255 244 209 3060 
14.991 1.532 3.298 255 244 209 3168 
14.99 1.534 3.296 255 244 210 3153 
14.992 1.53 3.289 255 244 210 3187 
14.99 1.534 3.288 255 244 209 3192 
14.991 1.533 3.285 255 244 209 3151 
14.99 1.534 3.282 255 244 209 3218 
14.991 1.533 3.278 255 244 210 3159 
14.99 1.535 3.277 255 244 210 3160 
14.991 1.532 3.271 255 244 210 3143 
14.99 1.535 3.27 255 244 209 3131 
14.99 1.535 3.267 255 244 209 3205 
14.991 1.534 3.262 255 244 206 3202 
14.991 1.534 3.258 255 243 203 3138 
14.992 1.532 3.253 255 243 203 3180 
14.991 1.533 3.251 255 244 206 3194 
14.972 1.528 4.27 255 249 219 3252 
14.971 1.529 4.266 255 249 219 3139 
14.971 1.529 4.262 255 250 220 3286 
14.971 1.53 4.259 255 250 220 3117 
14.971 1.53 4.255 255 249 219 3192 
14.97 1.532 4.253 255 251 222 3161 
14.972 1.529 4.245 255 251 222 3004 
14.972 1.529 4.24 255 251 222 3101 
14.972 1.529 4.237 255 251 222 3227 
14.971 1.53 4.233 255 251 222 3263 
14.971 1.531 4.23 255 251 222 3194 
14.972 1.53 4.224 255 251 222 3202 
14.971 1.531 4.221 255 251 220 3137 
14.972 1.53 4.215 255 250 220 3111 
14.973 1.528 4.209 255 249 219 3194 
14.972 1.53 4.207 255 249 219 3190 
14.972 1.531 4.203 255 249 219 3259 
14.972 1.53 4.197 255 249 219 3190 
14.973 1.53 4.193 255 250 220 3221 
14.973 1.529 4.189 255 249 219 3271 
14.971 1.532 4.188 255 249 219 3225 
14.971 1.531 4.183 255 249 219 3266 
14.972 1.531 4.177 255 249 219 3195 
14.973 1.529 4.171 255 249 219 3084 
14.973 1.53 4.168 255 249 219 3272 
14.972 1.532 4.165 255 248 216 3176 
14.973 1.53 4.16 255 248 216 3209 
14.972 1.531 4.156 255 249 217 3181 
14.972 1.532 4.153 255 248 216 3239 
14.972 1.531 4.148 255 248 216 3175 
14.972 1.531 4.144 255 248 216 3196 
14.974 1.529 4.137 255 249 214 3122 
14.973 1.531 4.135 255 248 216 3175 
14.974 1.529 4.128 255 248 216 3190 
14.973 1.531 4.126 255 248 216 3059 
14.974 1.529 4.12 255 249 217 3195 
14.974 1.529 4.116 255 248 216 3192 
14.973 1.531 4.114 255 248 216 3184 
14.973 1.532 4.111 255 248 216 3263 
14.972 1.533 4.108 255 249 219 3167 
14.973 1.531 4.101 255 248 218 3163 
14.975 1.529 4.095 255 248 218 3027 
14.974 1.53 4.092 255 248 218 3213 
14.973 1.533 4.09 255 248 218 3145 
14.973 1.533 4.087 255 248 218 3107 
14.974 1.53 4.079 255 248 218 3194 
14.976 1.528 4.072 255 248 218 3169 
14.975 1.53 4.07 255 248 218 3130 
14.976 1.529 4.065 255 248 216 3064 
14.974 1.531 4.064 255 248 218 3176 
14.975 1.53 4.058 255 248 218 3189 
14.975 1.529 4.053 255 248 218 3192 
14.975 1.531 4.05 255 248 218 3097 
14.976 1.529 4.045 255 248 218 3177 
14.974 1.532 4.044 255 248 216 3184 
14.975 1.531 4.038 255 248 216 3110 
14.975 1.531 4.034 255 248 216 3043 
14.976 1.53 4.028 255 248 216 3128 
14.975 1.531 4.026 255 248 216 3172 
14.975 1.532 4.022 255 248 216 3161 
14.974 1.533 4.02 255 247 215 3252 
14.976 1.53 4.012 255 247 215 3193 
14.975 1.532 4.01 255 247 215 3218 
14.976 1.53 4.004 255 248 216 3248 
14.976 1.53 3.999 255 248 216 3157 
14.976 1.53 3.995 255 248 216 3204 
14.977 1.529 3.99 255 248 218 3169 
14.976 1.53 3.988 255 248 218 3120 
14.977 1.53 3.983 255 248 218 3114 
14.976 1.531 3.981 255 248 218 3131 
14.976 1.531 3.977 255 248 218 3184 
14.976 1.531 3.972 255 248 218 3093 
14.976 1.531 3.969 255 248 218 3167 
14.976 1.532 3.965 255 248 218 3185 
14.977 1.53 3.959 255 248 218 3160 
14.977 1.53 3.955 255 248 218 3188 
14.975 1.533 3.954 255 248 218 3184 
14.978 1.529 3.946 255 248 218 3181 
14.977 1.53 3.943 255 248 218 3238 
14.978 1.528 3.937 255 248 218 3209 
14.978 1.529 3.933 255 248 218 3176 
14.978 1.53 3.93 255 248 218 3200 
14.978 1.529 3.926 255 248 218 3218 
14.979 1.528 3.921 255 248 218 3179 
14.979 1.529 3.917 255 248 218 3218 
14.977 1.531 3.915 255 247 217 3146 
14.978 1.53 3.91 255 247 215 3184 
14.978 1.53 3.907 255 247 215 3236 
14.979 1.529 3.901 255 246 214 3143 
14.977 1.531 3.9 255 247 215 3184 
14.978 1.53 3.894 255 248 218 3132 
14.977 1.531 3.892 255 248 218 3304 
14.978 1.531 3.888 255 248 218 3100 
14.979 1.529 3.881 255 248 218 3123 
14.979 1.529 3.877 255 248 218 3118 
14.98 1.528 3.872 255 247 217 3265 
14.979 1.529 3.87 255 247 217 3185 
14.979 1.529 3.865 255 247 217 3148 
14.979 1.53 3.862 255 247 215 3192 
14.98 1.529 3.857 255 247 215 3176 
14.98 1.528 3.853 255 247 215 3207 
14.979 1.529 3.85 255 247 215 3188 
14.979 1.53 3.846 255 247 215 3198 
14.98 1.528 3.841 255 247 215 3139 
14.98 1.528 3.837 255 247 215 3157 
14.979 1.531 3.836 255 247 215 3275 
14.98 1.529 3.83 255 248 216 3171 
14.978 1.532 3.829 255 247 215 3198 
14.98 1.53 3.823 255 247 212 3119 
14.979 1.531 3.821 255 245 211 3135 
14.98 1.53 3.815 255 245 211 3202 
14.98 1.53 3.811 255 246 214 3209 
14.979 1.531 3.809 255 246 214 3185 
14.981 1.529 3.803 255 246 212 3227 
14.98 1.53 3.8 255 246 212 3168 
14.981 1.528 3.794 255 246 212 3120 
14.979 1.533 3.795 255 246 212 3138 
14.982 1.528 3.786 255 246 212 3182 
14.98 1.531 3.785 255 247 212 3147 
14.981 1.529 3.779 255 247 212 3213 
14.981 1.528 3.775 255 246 214 3225 
14.98 1.531 3.773 255 246 214 3143 
14.98 1.532 3.771 255 247 215 3180 
14.981 1.53 3.764 255 247 215 3101 
14.98 1.532 3.763 255 247 215 3075 
14.98 1.532 3.759 255 246 214 3179 
14.981 1.53 3.752 255 246 214 3121 
14.981 1.53 3.749 255 247 215 3200 
14.981 1.53 3.745 255 247 215 3093 
14.981 1.531 3.743 255 246 214 3092 
14.982 1.529 3.737 255 247 212 3102 
14.982 1.529 3.733 255 247 212 3030 
14.982 1.529 3.73 255 247 212 3105 
14.982 1.529 3.726 255 247 212 3171 
14.98 1.532 3.724 255 248 213 3161 
14.982 1.53 3.719 255 247 212 3146 
14.981 1.532 3.717 255 247 212 3192 
14.981 1.531 3.712 255 246 211 3211 
14.982 1.53 3.707 255 247 212 3193 
14.982 1.531 3.704 255 247 215 3096 
14.981 1.531 3.701 255 246 214 3109 
14.982 1.53 3.696 255 246 212 3148 
14.982 1.53 3.692 255 245 211 3169 
14.981 1.531 3.689 255 245 211 3252 
14.982 1.531 3.686 255 245 211 3192 
14.981 1.532 3.683 255 246 212 3173 
14.982 1.53 3.677 255 246 214 3097 
14.982 1.53 3.674 255 246 214 3227 
14.982 1.531 3.671 255 248 213 3182 
14.983 1.529 3.664 255 246 212 3175 
14.982 1.531 3.663 255 246 212 3162 
14.983 1.53 3.658 255 245 211 3250 
14.982 1.531 3.655 255 245 211 3284 
14.982 1.531 3.652 255 246 212 3187 
14.982 1.531 3.649 255 246 212 3202 
14.982 1.532 3.646 255 246 212 3162 
14.982 1.533 3.643 255 246 212 3273 
14.982 1.533 3.639 255 248 213 3227 
14.982 1.531 3.634 255 246 211 3122 
14.984 1.53 3.628 255 246 212 3078 
14.982 1.532 3.627 255 246 212 3105 
14.982 1.532 3.623 255 247 212 3223 
14.983 1.53 3.618 255 247 212 3188 
14.984 1.53 3.613 255 247 212 3101 
14.983 1.531 3.611 255 244 209 3248 
14.983 1.532 3.608 255 244 209 3150 
14.984 1.53 3.602 255 245 207 3186 
14.983 1.531 3.6 255 244 205 3109 
14.984 1.53 3.595 255 244 207 3204 
14.983 1.532 3.593 255 244 207 3213 
14.983 1.532 3.589 255 244 210 3231 
14.984 1.531 3.585 255 247 217 3125 
14.981 1.535 3.586 255 247 220 3089 
14.983 1.531 3.578 255 249 224 3182 
14.983 1.531 3.574 255 249 222 3160 
14.985 1.529 3.568 255 250 221 3192 
14.982 1.533 3.569 255 248 217 3095 
14.984 1.531 3.563 255 247 215 3170 
14.984 1.531 3.559 255 247 215 3209 
14.984 1.531 3.556 255 246 212 3211 
14.985 1.53 3.551 255 245 211 3146 
14.984 1.532 3.55 255 245 211 3181 
14.984 1.531 3.545 255 245 211 3175 
14.984 1.532 3.542 255 245 211 3192 
14.986 1.529 3.535 255 247 212 3180 
14.984 1.532 3.534 255 246 214 3200 
14.985 1.53 3.529 255 246 212 3087 
14.985 1.531 3.526 255 245 211 3176 
14.984 1.533 3.525 255 245 211 3146 
14.985 1.531 3.519 255 246 212 3086 
14.983 1.533 3.518 255 245 211 3161 
14.984 1.532 3.513 255 245 211 3206 
14.984 1.532 3.51 255 245 211 3261 
