ply
format ascii 1.0
comment Author: CloudCompare (TELECOM PARISTECH/EDF R&D)
obj_info Generated by CloudCompare!
element vertex 1301
property float x
property float y
property float z
property uchar red
property uchar green
property uchar blue
property float scalar_Scalar_field
end_header
22.753 1.662 2.936 255 199 122 3479 
22.756 1.663 2.933 254 199 119 3411 
22.754 1.662 2.928 254 199 119 3495 
22.753 1.662 2.924 254 199 119 3409 
22.754 1.662 2.92 254 199 119 3445 
22.757 1.664 2.917 255 198 119 3452 
22.752 1.661 2.91 254 199 119 3470 
22.758 1.665 2.909 254 199 119 3341 
22.754 1.662 2.903 254 201 121 3345 
22.755 1.662 2.9 254 201 121 3390 
22.75 1.659 2.893 253 200 120 3447 
22.754 1.662 2.891 253 200 120 3359 
22.754 1.662 2.887 253 200 120 3436 
22.751 1.66 2.881 255 199 122 3431 
22.754 1.662 2.879 255 199 122 3345 
22.752 1.66 2.873 255 199 122 3430 
22.755 1.662 2.871 255 199 122 3355 
22.754 1.662 2.866 255 199 122 3425 
22.755 1.662 2.862 255 199 122 3438 
22.751 1.66 2.857 255 200 120 3488 
22.755 1.662 2.855 254 199 119 3463 
22.755 1.662 2.85 254 199 119 3439 
22.756 1.662 2.847 254 199 119 3361 
22.756 1.662 2.843 254 199 119 3388 
22.754 1.661 2.838 254 199 119 3468 
22.753 1.661 2.833 255 200 120 3443 
22.753 1.661 2.829 255 198 121 3441 
22.753 1.661 2.825 254 197 120 3355 
22.752 1.66 2.821 254 197 120 3402 
22.754 1.661 2.817 255 198 121 3439 
22.751 1.659 2.812 255 198 121 3352 
22.754 1.661 2.809 254 199 119 3486 
22.753 1.661 2.805 254 199 119 3352 
22.753 1.661 2.801 254 199 119 3459 
22.755 1.662 2.798 254 199 119 3365 
22.755 1.662 2.79 255 200 120 3434 
22.757 1.663 2.787 254 199 119 3445 
22.756 1.662 2.782 255 200 120 3409 
22.758 1.663 2.779 255 200 120 3427 
22.756 1.662 2.774 255 199 122 3384 
22.755 1.662 2.769 253 197 120 3341 
22.753 1.66 2.764 253 197 120 3456 
22.753 1.66 2.76 253 198 118 3489 
22.755 1.661 2.757 253 198 118 3432 
22.753 1.66 2.752 253 198 118 3429 
22.753 1.66 2.748 253 197 120 3363 
22.755 1.661 2.745 253 197 120 3318 
22.755 1.661 2.741 253 196 119 3416 
22.755 1.661 2.737 253 196 119 3390 
22.753 1.66 2.732 254 197 120 3504 
22.754 1.66 2.728 254 197 120 3404 
22.756 1.662 2.726 253 195 121 3488 
22.756 1.661 2.721 252 194 120 3339 
22.756 1.661 2.717 253 195 121 3395 
22.755 1.661 2.713 253 195 121 3432 
22.756 1.661 2.709 253 195 121 3381 
22.757 1.662 2.706 253 195 121 3406 
22.754 1.66 2.701 252 194 120 3354 
22.756 1.661 2.697 252 194 120 3331 
22.751 1.658 2.691 253 195 121 3452 
22.752 1.659 2.688 252 196 121 3395 
22.754 1.66 2.684 252 196 121 3446 
22.756 1.661 2.682 252 196 121 3430 
22.754 1.659 2.676 252 196 121 3413 
22.753 1.659 2.672 252 196 121 3386 
22.753 1.659 2.668 253 197 122 3384 
22.752 1.658 2.663 253 197 122 3434 
22.754 1.66 2.66 252 196 121 3377 
22.753 1.659 2.656 252 196 122 3395 
22.755 1.66 2.653 252 196 122 3396 
22.757 1.661 2.65 252 196 122 3318 
22.751 1.671 3.255 255 209 132 3432 
22.753 1.672 3.251 255 209 132 3372 
22.752 1.671 3.246 255 210 133 3393 
22.75 1.67 3.241 255 209 131 3450 
22.751 1.671 3.237 254 208 130 3502 
22.75 1.67 3.232 254 208 130 3429 
22.752 1.671 3.229 255 208 128 3397 
22.752 1.671 3.225 253 206 126 3395 
22.754 1.672 3.222 253 206 126 3343 
22.752 1.671 3.216 255 206 127 3479 
22.752 1.671 3.212 254 205 126 3311 
22.753 1.672 3.208 254 205 126 3390 
22.752 1.671 3.204 255 204 126 3381 
22.756 1.673 3.201 255 203 123 3413 
22.75 1.67 3.194 255 203 123 3411 
22.753 1.671 3.191 255 203 123 3402 
22.75 1.67 3.186 255 203 123 3400 
22.752 1.671 3.183 255 202 122 3466 
22.752 1.671 3.179 254 201 121 3470 
22.752 1.67 3.174 254 201 121 3404 
22.752 1.67 3.17 254 201 121 3421 
22.753 1.671 3.166 254 202 119 3377 
22.753 1.671 3.162 255 201 119 3446 
22.75 1.669 3.156 255 202 122 3473 
22.754 1.671 3.154 253 202 123 3471 
22.753 1.671 3.149 254 201 123 3434 
22.754 1.671 3.146 254 201 123 3345 
22.755 1.672 3.142 255 202 122 3395 
22.754 1.671 3.137 254 201 121 3375 
22.754 1.671 3.133 253 200 120 3502 
22.753 1.671 3.128 253 200 120 3420 
22.752 1.67 3.123 255 200 120 3461 
22.752 1.67 3.119 255 200 120 3493 
22.754 1.671 3.116 254 199 119 3456 
22.752 1.67 3.111 255 198 119 3443 
22.755 1.672 3.108 255 198 119 3468 
22.752 1.67 3.102 255 198 119 3384 
22.753 1.67 3.099 255 198 119 3436 
22.754 1.67 3.095 255 201 121 3377 
22.753 1.67 3.09 255 201 121 3402 
22.753 1.67 3.086 254 201 121 3443 
22.752 1.67 3.082 254 201 123 3434 
22.754 1.671 3.078 254 201 123 3475 
22.753 1.67 3.074 254 201 123 3470 
22.757 1.672 3.071 255 200 123 3363 
22.754 1.671 3.066 255 200 123 3429 
22.754 1.67 3.062 255 200 123 3343 
22.75 1.668 3.055 255 199 122 3311 
22.752 1.669 3.053 255 199 122 3418 
22.754 1.671 3.049 255 200 123 3361 
22.752 1.669 3.044 255 199 122 3404 
22.755 1.671 3.041 255 199 122 3375 
22.751 1.668 3.035 254 198 121 3454 
22.752 1.669 3.031 254 198 121 3446 
22.752 1.669 3.027 254 198 121 3338 
22.752 1.669 3.023 255 199 122 3406 
22.753 1.67 3.019 254 199 119 3452 
22.752 1.669 3.015 254 199 119 3429 
22.754 1.67 3.012 255 200 120 3388 
22.752 1.669 3.007 253 200 122 3393 
22.756 1.671 3.005 253 200 122 3416 
22.756 1.671 3 253 200 122 3386 
22.754 1.67 2.995 255 199 122 3396 
22.754 1.67 2.991 255 199 122 3372 
22.755 1.67 2.987 254 201 123 3384 
22.753 1.669 2.982 254 201 123 3436 
22.753 1.669 2.978 254 201 123 3491 
22.756 1.671 2.975 253 202 123 3350 
22.753 1.669 2.97 254 201 123 3356 
22.752 1.669 2.966 253 200 122 3402 
22.752 1.669 2.961 255 199 122 3345 
22.751 1.668 2.956 255 199 122 3432 
22.755 1.67 2.954 255 199 122 3386 
22.751 1.668 2.948 255 199 122 3450 
22.753 1.669 2.945 255 199 122 3390 
22.754 1.669 2.941 254 198 121 3418 
22.754 1.669 2.938 255 199 122 3466 
22.754 1.669 2.933 254 198 121 3357 
22.753 1.668 2.929 254 198 121 3384 
22.756 1.67 2.926 254 198 121 3386 
22.753 1.668 2.921 254 199 119 3489 
22.754 1.669 2.917 254 199 119 3445 
22.753 1.668 2.912 254 199 119 3354 
22.755 1.669 2.909 255 200 120 3439 
22.752 1.668 2.903 255 200 120 3470 
22.75 1.667 2.899 254 199 119 3400 
22.752 1.668 2.895 254 199 119 3429 
22.75 1.667 2.89 254 199 119 3363 
22.755 1.669 2.888 255 201 121 3420 
22.751 1.667 2.882 254 201 123 3439 
22.754 1.668 2.88 254 201 123 3400 
22.753 1.668 2.875 254 201 123 3384 
22.753 1.668 2.872 253 200 122 3490 
22.755 1.669 2.868 254 201 123 3361 
22.756 1.669 2.864 255 202 124 3396 
22.752 1.667 2.858 254 201 123 3461 
22.754 1.668 2.855 253 200 122 3415 
22.755 1.669 2.852 251 198 120 3354 
22.753 1.668 2.847 253 197 120 3423 
22.755 1.668 2.843 254 198 121 3479 
22.751 1.666 2.837 254 198 121 3454 
22.755 1.668 2.835 254 198 121 3446 
22.753 1.668 2.826 255 199 122 3495 
22.753 1.668 2.822 255 199 122 3414 
22.752 1.667 2.817 255 199 122 3388 
22.753 1.667 2.814 254 198 121 3314 
22.753 1.667 2.81 254 199 119 3438 
22.754 1.668 2.807 254 199 119 3425 
22.753 1.667 2.802 254 199 119 3388 
22.757 1.67 2.8 254 199 119 3480 
22.757 1.669 2.792 253 198 118 3397 
22.756 1.669 2.787 253 198 118 3379 
22.754 1.668 2.782 253 198 118 3425 
22.758 1.67 2.78 254 199 119 3411 
22.753 1.667 2.773 254 198 121 3389 
22.753 1.667 2.77 254 198 121 3559 
22.753 1.666 2.765 254 198 121 3375 
22.756 1.668 2.763 254 197 120 3443 
22.756 1.669 2.755 253 196 119 3470 
22.752 1.666 2.749 253 196 119 3434 
22.754 1.667 2.746 252 195 118 3402 
22.75 1.665 2.74 253 196 119 3457 
22.753 1.666 2.737 254 197 120 3313 
22.755 1.668 2.734 253 196 119 3381 
22.753 1.667 2.729 252 194 120 3329 
22.754 1.667 2.726 252 194 120 3445 
22.754 1.667 2.722 253 195 121 3390 
22.755 1.667 2.718 254 196 122 3330 
22.757 1.668 2.715 254 196 122 3421 
22.751 1.665 2.708 254 196 122 3359 
22.754 1.667 2.706 253 195 121 3420 
22.752 1.666 2.7 252 196 121 3379 
22.755 1.667 2.698 252 196 121 3377 
22.751 1.665 2.692 252 196 121 3425 
22.754 1.667 2.689 252 196 121 3454 
22.753 1.666 2.685 252 196 121 3327 
22.753 1.666 2.681 252 196 121 3448 
22.754 1.666 2.678 252 196 121 3465 
22.753 1.666 2.673 253 197 122 3481 
22.757 1.668 2.671 253 197 122 3411 
22.753 1.666 2.665 252 196 121 3397 
22.755 1.667 2.662 251 195 120 3379 
22.754 1.666 2.657 253 197 123 3377 
22.756 1.667 2.654 252 198 124 3502 
22.756 1.668 2.651 251 197 123 3409 
22.751 1.679 3.252 255 207 131 3396 
22.751 1.679 3.247 254 207 129 3498 
22.754 1.681 3.245 254 205 128 3414 
22.752 1.68 3.24 253 206 126 3375 
22.754 1.681 3.236 253 206 126 3368 
22.752 1.68 3.231 253 206 126 3418 
22.754 1.681 3.228 253 206 126 3380 
22.75 1.679 3.221 254 207 127 3434 
22.752 1.68 3.218 254 207 127 3429 
22.751 1.679 3.213 254 205 128 3427 
22.749 1.678 3.208 254 205 128 3438 
22.754 1.681 3.207 255 204 125 3395 
22.751 1.679 3.201 255 204 125 3452 
22.752 1.68 3.197 255 204 125 3384 
22.75 1.678 3.191 255 202 122 3446 
22.752 1.679 3.188 255 202 122 3370 
22.75 1.678 3.183 254 201 121 3382 
22.757 1.682 3.183 254 201 121 3404 
22.754 1.68 3.176 254 201 123 3404 
22.754 1.68 3.172 254 201 123 3425 
22.758 1.682 3.17 255 202 122 3352 
22.753 1.68 3.163 254 201 121 3454 
22.754 1.68 3.16 254 201 121 3384 
22.749 1.677 3.153 254 201 121 3415 
22.753 1.68 3.151 255 201 121 3436 
22.751 1.679 3.146 255 200 120 3425 
22.751 1.678 3.141 254 199 119 3400 
22.752 1.679 3.138 254 199 119 3493 
22.751 1.678 3.133 255 201 121 3461 
22.756 1.681 3.131 253 200 120 3352 
22.75 1.678 3.124 253 200 120 3438 
22.751 1.678 3.121 253 200 120 3432 
22.749 1.677 3.115 255 200 120 3445 
22.754 1.68 3.114 255 200 120 3432 
22.753 1.679 3.109 255 200 120 3459 
22.755 1.68 3.106 255 199 120 3420 
22.754 1.679 3.101 255 200 120 3411 
22.755 1.68 3.097 255 201 121 3429 
22.754 1.679 3.092 255 200 120 3346 
22.751 1.678 3.087 255 200 120 3452 
22.754 1.679 3.084 253 200 120 3388 
22.751 1.678 3.079 253 200 120 3366 
22.753 1.679 3.075 253 200 122 3411 
22.751 1.678 3.07 255 199 122 3393 
22.754 1.679 3.067 255 200 123 3400 
22.753 1.679 3.063 255 199 122 3446 
22.753 1.679 3.058 255 199 122 3446 
22.753 1.679 3.054 255 199 122 3366 
22.751 1.677 3.05 255 199 122 3404 
22.754 1.679 3.047 255 199 122 3327 
22.756 1.681 3.039 255 199 122 3395 
22.752 1.678 3.033 253 200 122 3454 
22.756 1.68 3.031 253 200 122 3427 
22.754 1.679 3.026 253 200 122 3381 
22.752 1.678 3.021 253 200 122 3415 
22.754 1.679 3.018 253 200 122 3368 
22.751 1.677 3.012 253 200 120 3461 
22.753 1.678 3.009 253 200 122 3429 
22.751 1.677 3.003 253 200 122 3504 
22.753 1.678 3.001 254 198 121 3439 
22.754 1.679 2.997 254 198 121 3386 
22.753 1.678 2.992 254 198 121 3400 
22.751 1.677 2.987 254 198 121 3418 
22.751 1.677 2.983 253 200 122 3407 
22.752 1.677 2.979 254 201 123 3436 
22.756 1.68 2.973 253 200 122 3425 
22.752 1.677 2.967 253 200 122 3486 
22.754 1.678 2.964 255 199 122 3420 
22.754 1.678 2.96 255 199 122 3443 
22.753 1.678 2.955 255 199 122 3304 
22.757 1.68 2.953 255 199 122 3350 
22.752 1.677 2.946 255 199 122 3418 
22.753 1.678 2.942 254 198 121 3441 
22.752 1.677 2.938 253 197 120 3432 
22.752 1.677 2.934 253 197 120 3429 
22.754 1.678 2.93 253 197 120 3373 
22.752 1.677 2.925 254 198 121 3409 
22.752 1.677 2.921 254 198 121 3396 
22.752 1.676 2.917 254 198 121 3380 
22.753 1.678 2.914 254 198 121 3413 
22.752 1.677 2.909 254 199 119 3325 
22.756 1.679 2.907 254 199 119 3436 
22.755 1.678 2.902 254 199 119 3495 
22.756 1.679 2.899 254 199 119 3406 
22.754 1.678 2.894 255 200 120 3295 
22.752 1.677 2.889 253 200 120 3409 
22.754 1.678 2.886 253 200 122 3338 
22.752 1.676 2.881 253 200 122 3397 
22.755 1.678 2.878 254 201 123 3415 
22.752 1.676 2.872 254 201 123 3425 
22.755 1.678 2.87 254 201 123 3427 
22.754 1.677 2.865 254 201 123 3415 
22.753 1.676 2.86 253 202 123 3439 
22.752 1.676 2.856 253 202 123 3334 
22.751 1.676 2.852 255 202 124 3496 
22.754 1.677 2.849 255 202 124 3388 
22.752 1.676 2.844 255 202 124 3472 
22.754 1.677 2.841 253 200 122 3429 
22.752 1.676 2.836 253 200 122 3427 
22.755 1.677 2.833 253 200 122 3396 
22.754 1.677 2.829 255 199 122 3375 
22.757 1.679 2.826 255 199 122 3400 
22.753 1.676 2.82 255 199 122 3404 
22.754 1.677 2.816 254 198 121 3386 
22.754 1.677 2.812 254 199 119 3393 
22.753 1.676 2.808 254 199 119 3357 
22.752 1.675 2.803 254 199 119 3368 
22.754 1.677 2.8 254 199 119 3420 
22.753 1.676 2.796 254 199 119 3416 
22.752 1.676 2.791 255 200 120 3397 
22.753 1.676 2.787 255 200 120 3422 
22.754 1.676 2.784 255 200 120 3352 
22.753 1.676 2.779 255 200 120 3443 
22.756 1.678 2.776 255 198 121 3372 
22.753 1.676 2.771 254 197 120 3338 
22.753 1.675 2.767 254 197 120 3398 
22.754 1.676 2.764 254 197 120 3377 
22.753 1.676 2.759 255 198 121 3484 
22.756 1.677 2.756 255 198 121 3418 
22.754 1.676 2.752 253 197 120 3413 
22.753 1.676 2.747 253 197 120 3407 
22.756 1.677 2.744 254 198 121 3372 
22.756 1.677 2.74 255 199 124 3379 
22.754 1.676 2.735 254 198 123 3413 
22.752 1.675 2.73 252 196 121 3447 
22.752 1.675 2.726 253 197 122 3429 
22.75 1.674 2.722 253 197 122 3356 
22.754 1.676 2.719 252 196 121 3432 
22.755 1.676 2.716 253 197 122 3470 
22.756 1.677 2.712 253 197 122 3411 
22.755 1.676 2.708 253 197 122 3364 
22.755 1.676 2.704 253 197 122 3439 
22.753 1.675 2.699 253 197 122 3415 
22.753 1.675 2.695 254 198 123 3439 
22.754 1.676 2.691 253 197 122 3452 
22.756 1.677 2.688 253 197 122 3432 
22.753 1.675 2.683 253 197 122 3438 
22.755 1.676 2.68 253 197 122 3479 
22.756 1.677 2.676 252 196 121 3397 
22.754 1.675 2.671 252 196 121 3352 
22.755 1.676 2.667 252 196 121 3436 
22.752 1.674 2.662 252 196 121 3440 
22.755 1.676 2.66 250 196 122 3352 
22.753 1.674 2.655 249 197 122 3422 
22.756 1.677 2.652 250 198 123 3425 
22.751 1.683 3.253 254 206 130 3379 
22.753 1.684 3.249 255 206 130 3463 
22.751 1.683 3.244 254 205 128 3363 
22.751 1.683 3.24 253 204 127 3354 
22.751 1.682 3.236 253 204 125 3338 
22.752 1.683 3.232 253 206 126 3395 
22.752 1.683 3.228 253 206 126 3427 
22.751 1.682 3.223 254 207 127 3457 
22.751 1.682 3.219 255 206 127 3495 
22.75 1.682 3.214 254 205 126 3377 
22.751 1.682 3.21 254 205 126 3393 
22.749 1.681 3.205 255 204 125 3432 
22.753 1.683 3.203 255 203 127 3506 
22.751 1.682 3.197 255 204 125 3361 
22.751 1.682 3.193 255 202 122 3421 
22.754 1.684 3.191 255 202 122 3352 
22.752 1.683 3.186 254 201 121 3340 
22.755 1.684 3.183 254 201 121 3438 
22.752 1.683 3.177 254 201 123 3350 
22.753 1.683 3.173 254 201 123 3429 
22.751 1.682 3.168 254 201 121 3440 
22.752 1.682 3.164 254 201 121 3421 
22.75 1.681 3.159 254 201 121 3409 
22.753 1.683 3.156 255 200 120 3396 
22.75 1.681 3.151 255 200 120 3473 
22.753 1.683 3.148 254 199 119 3377 
22.75 1.681 3.143 252 197 117 3332 
22.749 1.68 3.138 253 198 118 3452 
22.751 1.681 3.135 254 199 119 3454 
22.752 1.682 3.131 253 200 120 3346 
22.751 1.682 3.126 253 200 120 3415 
22.751 1.681 3.122 254 201 121 3461 
22.748 1.679 3.116 254 201 121 3407 
22.753 1.682 3.115 255 201 121 3430 
22.755 1.683 3.111 255 201 121 3466 
22.755 1.684 3.107 254 198 121 3430 
22.752 1.682 3.102 254 198 121 3461 
22.752 1.682 3.098 255 199 122 3375 
22.752 1.681 3.093 254 199 119 3398 
22.753 1.682 3.089 254 199 119 3413 
22.752 1.681 3.084 254 199 119 3381 
22.755 1.683 3.082 254 199 119 3389 
22.753 1.682 3.076 254 198 121 3396 
22.751 1.68 3.071 254 198 121 3359 
22.751 1.681 3.067 254 198 121 3438 
22.75 1.68 3.063 254 198 121 3420 
22.75 1.68 3.058 254 198 121 3475 
22.754 1.682 3.056 254 198 121 3355 
22.751 1.681 3.051 255 199 122 3365 
22.754 1.682 3.048 255 199 122 3275 
22.754 1.682 3.044 255 199 122 3443 
22.754 1.682 3.039 255 199 122 3420 
22.753 1.681 3.034 253 200 124 3420 
22.753 1.682 3.031 253 200 124 3457 
22.751 1.68 3.026 253 200 122 3371 
22.753 1.681 3.022 254 201 123 3440 
22.75 1.68 3.017 254 201 123 3357 
22.752 1.681 3.014 254 201 123 3438 
22.753 1.681 3.01 254 201 123 3440 
22.751 1.68 3.005 254 201 123 3440 
22.753 1.681 3.002 255 199 122 3445 
22.751 1.68 2.997 254 198 121 3457 
22.752 1.68 2.993 254 198 121 3388 
22.751 1.68 2.989 253 197 120 3468 
22.752 1.68 2.985 255 199 122 3418 
22.752 1.68 2.98 255 199 122 3452 
22.755 1.682 2.978 253 200 122 3459 
22.752 1.68 2.972 253 200 122 3468 
22.754 1.681 2.969 253 200 122 3445 
22.754 1.681 2.965 255 199 122 3456 
22.753 1.68 2.96 255 199 122 3486 
22.752 1.68 2.956 255 199 122 3384 
22.753 1.681 2.952 254 198 121 3368 
22.753 1.68 2.948 254 198 121 3431 
22.752 1.68 2.943 253 197 120 3407 
22.75 1.679 2.938 254 197 120 3420 
22.752 1.68 2.935 253 196 119 3450 
22.753 1.68 2.931 254 197 120 3381 
22.752 1.68 2.927 254 198 121 3455 
22.751 1.679 2.922 254 198 121 3368 
22.75 1.678 2.917 254 198 121 3409 
22.751 1.679 2.914 255 199 122 3418 
22.753 1.68 2.911 255 200 120 3370 
22.751 1.679 2.906 255 200 120 3411 
22.754 1.681 2.903 255 200 120 3484 
22.753 1.68 2.899 255 200 120 3447 
22.754 1.681 2.895 255 200 120 3348 
22.753 1.68 2.891 253 200 120 3415 
22.752 1.68 2.886 253 200 122 3405 
22.752 1.68 2.882 253 200 122 3396 
22.753 1.68 2.878 253 200 122 3422 
22.751 1.679 2.873 254 201 123 3402 
22.752 1.679 2.869 255 202 124 3425 
22.753 1.68 2.866 254 201 123 3391 
22.75 1.678 2.86 253 202 123 3434 
22.752 1.679 2.857 253 202 123 3371 
22.752 1.679 2.853 253 202 123 3471 
22.752 1.679 2.849 255 202 124 3395 
22.753 1.679 2.845 255 202 124 3463 
22.752 1.678 2.841 254 201 123 3420 
22.752 1.679 2.837 253 200 122 3416 
22.753 1.679 2.833 253 200 122 3393 
22.754 1.68 2.829 253 200 122 3429 
22.754 1.68 2.826 255 199 122 3414 
22.752 1.678 2.821 255 199 122 3381 
22.754 1.68 2.817 254 198 121 3425 
22.753 1.679 2.813 254 199 119 3388 
22.752 1.679 2.808 254 199 119 3384 
22.753 1.679 2.805 254 199 119 3370 
22.752 1.678 2.8 254 199 119 3409 
22.752 1.679 2.796 254 199 119 3454 
22.753 1.679 2.792 255 200 120 3427 
22.751 1.678 2.788 253 200 122 3448 
22.753 1.679 2.785 255 202 124 3354 
22.754 1.679 2.781 255 202 124 3477 
22.752 1.678 2.776 254 198 121 3370 
22.751 1.677 2.771 254 198 121 3343 
22.752 1.678 2.768 254 198 121 3393 
22.753 1.679 2.764 253 197 120 3372 
22.754 1.679 2.761 254 198 121 3415 
22.754 1.679 2.756 254 198 121 3454 
22.753 1.679 2.752 254 198 121 3434 
22.751 1.678 2.748 254 198 121 3381 
22.759 1.682 2.747 252 199 123 3386 
22.751 1.677 2.739 254 198 123 3402 
22.755 1.68 2.737 254 198 123 3332 
22.752 1.678 2.732 253 197 122 3471 
22.751 1.677 2.727 253 197 122 3432 
22.751 1.677 2.723 253 197 122 3395 
22.752 1.678 2.72 255 197 123 3411 
22.755 1.679 2.717 253 197 122 3470 
22.752 1.677 2.711 253 197 122 3418 
22.755 1.679 2.708 253 197 122 3345 
22.751 1.677 2.703 254 198 123 3409 
22.754 1.678 2.7 254 198 123 3397 
22.753 1.678 2.696 253 197 122 3400 
22.755 1.679 2.692 253 197 122 3479 
22.752 1.677 2.687 253 197 122 3422 
22.754 1.679 2.684 253 197 122 3429 
22.755 1.679 2.681 253 197 122 3429 
22.753 1.678 2.676 252 196 121 3422 
22.755 1.679 2.673 252 196 121 3348 
22.752 1.677 2.667 252 196 121 3463 
22.751 1.676 2.663 252 196 121 3459 
22.753 1.678 2.66 252 196 122 3386 
22.754 1.678 2.656 252 196 122 3372 
22.753 1.678 2.652 251 197 123 3461 
22.753 1.694 3.254 254 205 129 3447 
22.755 1.695 3.251 254 205 129 3468 
22.753 1.694 3.245 253 204 128 3468 
22.755 1.695 3.242 253 204 127 3359 
22.753 1.695 3.237 254 205 128 3352 
22.754 1.695 3.233 254 205 128 3379 
22.753 1.694 3.228 254 205 126 3463 
22.756 1.696 3.225 253 204 125 3373 
22.75 1.692 3.218 253 202 123 3393 
22.752 1.693 3.215 254 201 123 3425 
22.753 1.694 3.211 254 201 123 3389 
22.753 1.694 3.207 254 200 126 3398 
22.754 1.694 3.203 253 200 124 3400 
22.754 1.694 3.199 253 200 124 3415 
22.755 1.695 3.196 253 200 122 3371 
22.752 1.693 3.19 255 199 122 3423 
22.754 1.694 3.186 254 198 121 3432 
22.754 1.694 3.182 255 199 122 3420 
22.753 1.693 3.177 255 199 124 3409 
22.753 1.693 3.173 254 198 123 3425 
22.753 1.693 3.169 254 198 123 3381 
22.753 1.693 3.165 252 199 121 3370 
22.752 1.693 3.16 252 199 121 3488 
22.756 1.695 3.158 253 200 122 3377 
22.75 1.692 3.151 253 200 122 3464 
22.755 1.694 3.148 254 201 123 3368 
22.752 1.692 3.143 254 201 123 3463 
22.753 1.693 3.14 254 201 123 3475 
22.753 1.693 3.135 253 202 123 3402 
22.752 1.692 3.13 253 202 123 3413 
22.752 1.692 3.126 253 202 123 3434 
22.753 1.693 3.123 253 200 124 3343 
22.753 1.693 3.119 253 200 124 3468 
22.754 1.694 3.115 253 200 124 3397 
22.754 1.693 3.11 255 200 125 3500 
22.752 1.692 3.105 255 199 124 3441 
22.753 1.693 3.102 255 199 122 3514 
22.753 1.693 3.098 255 199 122 3486 
22.754 1.694 3.094 254 198 121 3429 
22.754 1.693 3.09 254 199 119 3345 
22.754 1.693 3.086 254 199 119 3438 
22.755 1.693 3.082 254 199 119 3454 
22.753 1.692 3.076 254 198 121 3452 
22.753 1.692 3.072 254 198 121 3400 
22.751 1.692 3.067 254 198 121 3373 
22.752 1.692 3.063 253 197 122 3439 
22.752 1.692 3.059 254 196 122 3470 
22.754 1.693 3.056 254 196 122 3470 
22.754 1.693 3.052 254 198 123 3463 
22.754 1.693 3.048 254 198 123 3459 
22.754 1.693 3.043 254 198 123 3395 
22.752 1.692 3.038 254 198 123 3413 
22.756 1.694 3.037 254 198 123 3421 
22.751 1.691 3.03 253 197 122 3393 
22.753 1.692 3.026 254 198 123 3339 
22.751 1.691 3.021 254 198 121 3502 
22.755 1.693 3.019 254 198 121 3354 
22.754 1.692 3.014 254 198 121 3382 
22.751 1.691 3.009 255 199 122 3443 
22.756 1.693 3.007 255 199 122 3372 
22.751 1.691 3.001 254 198 121 3439 
22.752 1.691 2.997 254 198 123 3443 
22.752 1.691 2.992 254 198 123 3407 
22.752 1.691 2.989 253 197 122 3439 
22.752 1.691 2.984 251 195 120 3359 
22.755 1.693 2.982 252 196 121 3311 
22.752 1.691 2.976 254 198 123 3354 
22.751 1.69 2.971 252 199 123 3350 
22.754 1.692 2.969 253 200 124 3379 
22.751 1.69 2.963 254 201 125 3465 
22.753 1.691 2.96 253 202 123 3446 
22.752 1.691 2.955 255 200 123 3375 
22.753 1.691 2.952 255 200 123 3320 
22.753 1.691 2.948 255 200 123 3463 
22.755 1.692 2.945 255 199 122 3375 
22.752 1.691 2.939 255 199 122 3432 
22.753 1.691 2.935 255 199 122 3361 
22.754 1.692 2.932 253 200 122 3413 
22.75 1.689 2.925 253 200 122 3488 
22.753 1.691 2.923 255 199 122 3377 
22.751 1.69 2.918 255 198 121 3425 
22.756 1.693 2.916 255 199 122 3443 
22.75 1.689 2.909 254 199 119 3420 
22.755 1.692 2.907 253 200 120 3430 
22.751 1.69 2.901 253 200 120 3466 
22.754 1.691 2.899 254 201 121 3364 
22.754 1.692 2.895 255 200 120 3361 
22.754 1.691 2.89 255 200 120 3384 
22.754 1.691 2.886 255 199 122 3380 
22.751 1.689 2.881 253 200 122 3414 
22.756 1.692 2.879 253 200 122 3393 
22.754 1.691 2.874 253 200 122 3427 
22.757 1.693 2.872 253 200 122 3323 
22.753 1.69 2.865 253 200 122 3427 
22.753 1.69 2.861 253 200 122 3420 
22.753 1.69 2.857 253 200 122 3495 
22.753 1.69 2.853 253 200 122 3454 
22.754 1.691 2.85 253 200 122 3423 
22.751 1.689 2.844 253 200 122 3498 
22.754 1.691 2.841 254 201 123 3463 
22.75 1.689 2.836 254 201 123 3450 
22.753 1.69 2.833 254 201 123 3368 
22.755 1.691 2.83 254 201 123 3411 
22.753 1.69 2.825 255 202 124 3368 
22.754 1.69 2.821 255 202 124 3393 
22.753 1.69 2.817 255 202 124 3396 
22.753 1.69 2.813 254 201 123 3461 
22.754 1.69 2.809 255 202 122 3331 
22.753 1.69 2.804 255 202 122 3448 
22.753 1.69 2.8 255 202 122 3361 
22.753 1.69 2.796 254 201 121 3443 
22.754 1.69 2.793 254 201 121 3421 
22.752 1.689 2.788 253 200 122 3427 
22.755 1.691 2.785 253 200 122 3456 
22.752 1.689 2.78 254 201 123 3436 
22.753 1.69 2.776 254 201 123 3493 
22.751 1.688 2.771 254 201 123 3390 
22.752 1.689 2.768 255 202 124 3427 
22.752 1.689 2.764 253 200 122 3459 
22.753 1.689 2.76 253 200 124 3459 
22.754 1.69 2.756 254 201 125 3413 
22.754 1.69 2.752 255 202 126 3372 
22.758 1.692 2.75 255 203 127 3430 
22.753 1.689 2.744 254 201 125 3468 
22.755 1.691 2.741 253 200 124 3398 
22.753 1.689 2.736 253 200 124 3364 
22.754 1.69 2.732 253 200 124 3418 
22.752 1.689 2.727 252 199 123 3513 
22.751 1.688 2.723 252 199 123 3470 
22.755 1.69 2.72 252 199 123 3368 
22.752 1.688 2.715 253 200 124 3379 
22.756 1.69 2.712 253 200 124 3439 
22.751 1.688 2.707 253 200 124 3432 
22.753 1.689 2.704 253 200 124 3427 
22.752 1.688 2.699 253 199 125 3364 
22.754 1.689 2.696 253 199 125 3338 
22.753 1.689 2.691 253 199 125 3425 
22.753 1.689 2.687 253 199 125 3504 
22.756 1.69 2.685 253 199 125 3422 
22.754 1.689 2.68 253 199 125 3393 
22.755 1.69 2.676 252 198 124 3413 
22.751 1.688 2.671 252 198 124 3429 
22.756 1.69 2.668 253 199 127 3425 
22.752 1.688 2.663 252 198 126 3352 
22.756 1.69 2.661 252 198 126 3447 
22.754 1.689 2.656 251 199 126 3461 
22.754 1.689 2.652 251 199 126 3395 
22.751 1.694 3.253 254 205 129 3372 
22.751 1.694 3.249 252 203 127 3455 
22.751 1.694 3.245 254 202 127 3505 
22.752 1.695 3.241 254 202 126 3429 
22.75 1.694 3.236 255 203 127 3343 
22.753 1.695 3.233 254 202 126 3404 
22.749 1.693 3.227 254 202 126 3427 
22.752 1.694 3.224 254 202 126 3368 
22.749 1.693 3.219 253 202 123 3452 
22.751 1.694 3.215 254 201 123 3388 
22.751 1.694 3.211 254 201 123 3379 
22.753 1.695 3.208 254 200 126 3334 
22.754 1.696 3.204 253 200 124 3397 
22.751 1.694 3.198 253 200 124 3420 
22.752 1.694 3.195 253 200 122 3388 
22.752 1.694 3.19 255 199 122 3311 
22.752 1.694 3.186 254 198 121 3379 
22.752 1.694 3.182 255 199 122 3352 
22.753 1.694 3.178 255 199 124 3377 
22.75 1.693 3.172 255 199 124 3436 
22.749 1.692 3.167 254 198 123 3384 
22.751 1.693 3.164 254 198 121 3397 
22.75 1.692 3.159 252 199 121 3477 
22.752 1.693 3.156 252 201 122 3461 
22.748 1.692 3.15 254 201 123 3363 
22.749 1.692 3.147 254 201 123 3375 
22.754 1.695 3.144 254 201 123 3409 
22.751 1.693 3.139 254 201 123 3320 
22.753 1.694 3.136 254 201 123 3420 
22.752 1.694 3.131 253 202 123 3480 
22.752 1.693 3.127 253 202 123 3459 
22.751 1.693 3.122 253 200 124 3413 
22.752 1.693 3.119 253 200 124 3520 
22.754 1.695 3.115 253 200 124 3443 
22.752 1.693 3.11 255 200 125 3479 
22.753 1.694 3.106 255 199 124 3443 
22.751 1.692 3.101 255 199 122 3436 
22.752 1.693 3.098 255 199 122 3454 
22.75 1.692 3.092 254 198 121 3405 
22.752 1.693 3.089 254 199 119 3471 
22.75 1.692 3.084 253 200 122 3340 
22.752 1.693 3.08 253 200 122 3404 
22.754 1.694 3.077 255 199 122 3429 
22.751 1.692 3.072 254 198 123 3400 
22.753 1.693 3.068 254 198 123 3352 
22.75 1.692 3.063 254 198 123 3443 
22.753 1.694 3.061 254 196 122 3384 
22.753 1.693 3.056 254 196 122 3372 
22.754 1.694 3.053 253 197 122 3379 
22.754 1.694 3.049 254 198 123 3402 
22.753 1.693 3.043 254 198 123 3377 
22.754 1.694 3.04 254 198 123 3425 
22.75 1.691 3.034 254 198 123 3461 
22.751 1.692 3.03 253 197 122 3498 
22.751 1.692 3.026 254 198 123 3363 
22.75 1.691 3.022 254 198 121 3505 
22.752 1.692 3.018 254 198 121 3361 
22.752 1.692 3.014 254 198 121 3363 
22.751 1.692 3.01 255 199 122 3436 
22.75 1.691 3.005 255 199 122 3463 
22.752 1.692 3.001 254 198 121 3372 
22.75 1.691 2.997 254 198 123 3379 
22.752 1.692 2.993 254 198 123 3329 
22.751 1.691 2.989 254 198 123 3418 
22.754 1.693 2.986 252 196 121 3327 
22.751 1.691 2.98 253 197 122 3386 
22.755 1.694 2.978 254 198 123 3434 
22.75 1.691 2.972 252 199 123 3420 
22.752 1.692 2.968 253 200 124 3381 
22.751 1.691 2.964 254 201 125 3516 
22.748 1.69 2.958 253 202 123 3481 
22.752 1.692 2.956 253 202 123 3384 
22.748 1.689 2.95 255 200 123 3461 
22.751 1.691 2.947 255 200 123 3350 
22.75 1.69 2.943 255 199 122 3404 
22.753 1.692 2.94 255 199 122 3346 
22.75 1.69 2.934 255 199 122 3459 
22.753 1.692 2.932 254 198 121 3384 
22.752 1.691 2.927 253 200 122 3421 
22.749 1.689 2.921 255 199 122 3434 
22.753 1.692 2.919 253 200 122 3423 
22.751 1.691 2.914 255 199 122 3398 
22.754 1.692 2.912 253 200 120 3439 
22.75 1.69 2.905 253 200 120 3470 
22.756 1.693 2.904 253 200 120 3427 
22.751 1.69 2.897 253 200 120 3413 
22.751 1.69 2.894 253 200 120 3393 
22.751 1.69 2.89 255 200 120 3402 
22.75 1.69 2.885 255 199 122 3365 
22.75 1.69 2.881 255 199 122 3393 
22.75 1.689 2.877 253 200 122 3381 
22.752 1.691 2.874 253 200 122 3418 
22.751 1.69 2.869 253 200 122 3441 
22.753 1.691 2.866 253 200 122 3464 
22.748 1.688 2.86 253 200 122 3465 
22.751 1.69 2.857 253 200 122 3461 
22.754 1.692 2.854 253 200 122 3411 
22.752 1.691 2.849 253 200 122 3354 
22.754 1.691 2.846 253 200 122 3434 
22.752 1.69 2.841 254 201 123 3404 
22.753 1.691 2.837 254 201 123 3440 
22.75 1.689 2.832 254 201 123 3430 
22.751 1.69 2.829 254 201 123 3345 
22.752 1.69 2.825 254 203 124 3398 
22.749 1.688 2.82 254 203 124 3445 
22.753 1.69 2.817 254 203 124 3425 
22.748 1.688 2.811 254 201 123 3465 
22.751 1.689 2.808 254 201 123 3477 
22.752 1.69 2.804 255 202 122 3388 
22.751 1.689 2.8 255 202 122 3471 
22.75 1.689 2.796 254 201 121 3409 
22.752 1.69 2.792 254 201 121 3413 
22.753 1.691 2.789 253 200 122 3411 
22.751 1.689 2.784 253 200 122 3466 
22.756 1.692 2.782 254 201 123 3455 
22.751 1.689 2.776 254 201 123 3461 
22.753 1.69 2.772 253 200 122 3457 
22.753 1.69 2.768 255 202 124 3375 
22.752 1.69 2.764 253 200 122 3386 
22.752 1.69 2.76 253 200 122 3455 
22.752 1.69 2.756 254 201 125 3359 
22.752 1.689 2.752 255 202 126 3495 
22.751 1.689 2.747 255 202 126 3411 
22.756 1.692 2.745 252 199 123 3464 
22.751 1.689 2.739 253 200 124 3477 
22.752 1.69 2.736 253 200 124 3448 
22.75 1.688 2.731 253 200 124 3429 
22.753 1.69 2.728 253 200 124 3400 
22.752 1.689 2.724 253 200 124 3475 
22.753 1.69 2.72 252 199 123 3430 
22.754 1.69 2.716 253 200 124 3413 
22.753 1.69 2.712 253 200 124 3377 
22.757 1.692 2.709 253 200 124 3393 
22.751 1.689 2.703 253 200 124 3411 
22.751 1.688 2.699 253 200 124 3382 
22.752 1.689 2.696 253 199 125 3354 
22.754 1.69 2.692 253 199 125 3418 
22.752 1.689 2.687 253 199 125 3420 
22.751 1.688 2.683 253 199 125 3373 
22.751 1.688 2.679 253 199 125 3393 
22.752 1.689 2.675 252 198 124 3405 
22.751 1.688 2.671 252 198 124 3439 
22.75 1.688 2.667 253 199 127 3345 
22.75 1.688 2.663 252 198 126 3395 
22.752 1.689 2.659 251 199 126 3396 
22.754 1.69 2.656 252 199 129 3377 
22.755 1.69 2.652 253 200 130 3455 
22.752 1.708 3.253 253 197 123 3411 
22.752 1.708 3.248 254 196 123 3372 
22.75 1.707 3.243 254 196 123 3463 
22.752 1.708 3.24 254 196 122 3436 
22.752 1.708 3.236 253 197 122 3434 
22.751 1.707 3.231 253 197 122 3400 
22.754 1.709 3.228 253 197 122 3463 
22.75 1.706 3.221 253 197 122 3473 
22.753 1.708 3.219 254 196 122 3434 
22.753 1.708 3.215 254 196 122 3402 
22.755 1.709 3.212 253 197 122 3364 
22.753 1.708 3.206 252 196 121 3398 
22.753 1.708 3.202 252 196 121 3430 
22.753 1.708 3.197 252 196 121 3436 
22.752 1.707 3.193 253 197 122 3482 
22.755 1.709 3.191 253 197 122 3406 
22.752 1.707 3.185 252 196 121 3434 
22.751 1.707 3.18 251 195 120 3464 
22.75 1.706 3.175 252 196 121 3448 
22.752 1.707 3.172 252 196 121 3384 
22.751 1.706 3.167 253 197 122 3438 
22.753 1.708 3.164 254 198 124 3473 
22.753 1.708 3.16 253 197 123 3443 
22.75 1.706 3.154 253 197 122 3450 
22.754 1.708 3.152 253 197 122 3336 
22.751 1.706 3.146 253 197 122 3418 
22.756 1.709 3.145 253 197 122 3468 
22.75 1.706 3.137 254 198 123 3434 
22.753 1.707 3.134 253 197 122 3450 
22.751 1.706 3.129 252 199 123 3373 
22.754 1.708 3.126 252 199 123 3404 
22.752 1.707 3.122 253 200 124 3400 
22.752 1.707 3.118 254 201 125 3450 
22.751 1.706 3.112 254 201 125 3486 
22.749 1.705 3.107 253 200 122 3430 
22.752 1.707 3.105 254 201 123 3421 
22.751 1.706 3.1 254 201 123 3429 
22.753 1.707 3.097 254 201 123 3404 
22.75 1.706 3.091 254 201 123 3488 
22.753 1.707 3.088 254 201 123 3429 
22.753 1.707 3.084 254 201 125 3493 
22.754 1.708 3.08 254 201 125 3405 
22.756 1.709 3.078 254 201 125 3379 
22.754 1.707 3.072 253 199 125 3420 
22.754 1.707 3.068 254 198 124 3411 
22.753 1.706 3.063 252 198 124 3436 
22.753 1.707 3.059 252 198 124 3384 
22.755 1.707 3.056 253 199 125 3406 
22.756 1.708 3.052 253 199 125 3473 
22.754 1.707 3.047 252 198 124 3354 
22.751 1.705 3.041 254 198 124 3382 
22.753 1.706 3.038 251 195 121 3377 
22.752 1.706 3.033 251 195 121 3411 
22.754 1.707 3.03 252 196 122 3418 
22.753 1.706 3.026 253 200 124 3402 
22.754 1.707 3.022 253 200 124 3447 
22.753 1.706 3.017 254 201 125 3507 
22.755 1.707 3.014 255 200 125 3355 
22.755 1.707 3.01 255 199 124 3379 
22.753 1.706 3.005 254 198 124 3323 
22.753 1.706 3.001 254 198 124 3406 
22.75 1.704 2.995 253 197 123 3473 
22.755 1.706 2.993 253 197 123 3427 
22.753 1.706 2.988 252 196 122 3379 
22.757 1.708 2.986 252 196 122 3395 
22.753 1.705 2.98 252 196 122 3373 
22.751 1.705 2.975 252 196 122 3479 
22.75 1.704 2.97 252 196 122 3377 
22.751 1.704 2.966 251 197 123 3275 
22.752 1.704 2.962 251 198 122 3416 
22.753 1.706 2.959 253 200 124 3434 
22.751 1.704 2.954 253 201 125 3455 
22.752 1.705 2.95 255 203 127 3404 
22.752 1.705 2.946 255 203 127 3396 
22.752 1.705 2.942 255 203 127 3502 
22.753 1.705 2.938 254 202 126 3355 
22.753 1.705 2.934 253 201 125 3479 
22.753 1.705 2.93 254 201 125 3343 
22.753 1.705 2.926 254 201 125 3397 
22.753 1.705 2.922 254 201 125 3461 
22.754 1.706 2.919 253 201 125 3446 
22.752 1.705 2.913 254 202 127 3461 
22.752 1.704 2.909 254 202 127 3522 
22.754 1.705 2.906 254 202 127 3400 
22.751 1.704 2.901 254 202 127 3470 
22.752 1.704 2.897 254 202 127 3450 
22.749 1.702 2.891 251 202 126 3490 
22.751 1.704 2.888 252 203 127 3477 
22.751 1.703 2.884 252 203 127 3448 
22.752 1.704 2.88 254 202 127 3468 
22.752 1.704 2.877 254 202 127 3452 
22.752 1.704 2.873 254 202 127 3447 
22.753 1.704 2.869 254 202 127 3391 
22.753 1.705 2.865 254 202 127 3452 
22.754 1.705 2.861 254 202 127 3495 
22.751 1.703 2.856 254 202 127 3396 
22.755 1.705 2.853 255 201 127 3436 
22.753 1.704 2.848 254 200 126 3382 
22.752 1.703 2.844 254 200 126 3402 
22.752 1.704 2.84 253 199 125 3379 
22.752 1.704 2.836 254 200 126 3438 
22.752 1.703 2.831 254 200 126 3420 
22.751 1.703 2.827 253 201 126 3389 
22.751 1.703 2.823 253 201 126 3334 
22.751 1.703 2.819 254 202 127 3393 
22.752 1.703 2.815 255 203 127 3395 
22.752 1.703 2.811 254 202 126 3364 
22.751 1.702 2.807 252 200 124 3473 
22.751 1.702 2.802 252 201 122 3438 
22.752 1.703 2.799 253 202 123 3479 
22.753 1.704 2.796 255 203 125 3455 
22.753 1.704 2.792 254 202 126 3415 
22.755 1.705 2.788 255 203 127 3454 
22.752 1.703 2.783 255 203 127 3386 
22.753 1.704 2.779 254 202 126 3440 
22.752 1.703 2.775 255 203 127 3457 
22.755 1.704 2.772 254 202 126 3390 
22.754 1.704 2.767 254 202 126 3457 
22.752 1.702 2.762 254 202 126 3468 
22.752 1.703 2.759 253 201 125 3314 
22.753 1.704 2.755 254 202 126 3436 
22.752 1.702 2.75 253 201 125 3475 
22.752 1.703 2.747 253 201 125 3411 
22.749 1.701 2.741 253 201 126 3445 
22.752 1.702 2.738 253 201 126 3502 
22.753 1.703 2.735 254 200 126 3395 
22.749 1.7 2.728 254 200 126 3552 
22.754 1.704 2.727 254 200 126 3407 
22.757 1.705 2.724 254 200 126 3406 
22.754 1.704 2.719 252 198 124 3421 
22.757 1.705 2.716 253 199 125 3370 
22.752 1.702 2.71 254 200 126 3402 
22.756 1.705 2.708 252 198 124 3343 
22.752 1.702 2.702 252 198 124 3395 
22.754 1.703 2.699 253 199 125 3405 
22.753 1.703 2.694 254 200 126 3489 
22.753 1.702 2.69 253 199 125 3497 
22.754 1.703 2.687 252 198 126 3425 
22.753 1.702 2.682 253 196 125 3456 
22.752 1.702 2.678 253 196 125 3395 
22.751 1.701 2.674 252 198 126 3346 
22.755 1.703 2.671 252 198 126 3400 
22.752 1.702 2.666 251 197 125 3495 
22.756 1.704 2.664 250 196 126 3388 
22.756 1.704 2.66 251 197 127 3482 
22.754 1.703 2.655 251 197 127 3423 
22.756 1.704 2.651 251 196 129 3418 
22.751 1.708 3.253 254 198 124 3464 
22.75 1.707 3.248 254 196 123 3416 
22.75 1.707 3.244 254 196 123 3397 
22.75 1.707 3.24 254 196 122 3463 
22.751 1.707 3.236 253 197 122 3389 
22.751 1.707 3.232 253 197 122 3375 
22.753 1.708 3.228 253 197 122 3402 
22.75 1.707 3.219 253 197 122 3380 
22.749 1.706 3.213 254 196 122 3438 
22.752 1.708 3.211 253 197 122 3409 
22.749 1.706 3.205 253 197 122 3482 
22.751 1.707 3.202 252 196 121 3404 
22.75 1.706 3.197 252 196 121 3479 
22.75 1.706 3.193 253 197 122 3432 
22.751 1.707 3.189 253 197 122 3436 
22.751 1.707 3.185 252 196 121 3396 
22.75 1.706 3.18 251 195 120 3454 
22.749 1.705 3.175 252 196 121 3455 
22.753 1.708 3.173 252 196 121 3397 
22.75 1.706 3.167 254 198 124 3431 
22.753 1.708 3.165 254 198 124 3400 
22.753 1.708 3.16 253 197 123 3325 
22.75 1.705 3.155 253 197 122 3346 
22.751 1.706 3.151 253 197 122 3404 
22.749 1.705 3.146 253 197 122 3450 
22.754 1.708 3.144 253 197 122 3461 
22.749 1.705 3.137 254 198 123 3404 
22.75 1.706 3.134 253 197 122 3350 
22.748 1.704 3.128 252 199 123 3400 
22.751 1.706 3.126 252 199 123 3425 
22.752 1.706 3.122 253 200 124 3430 
22.752 1.706 3.118 254 201 125 3436 
22.749 1.705 3.112 254 201 125 3438 
22.747 1.704 3.107 253 200 122 3441 
22.75 1.706 3.104 254 201 123 3368 
22.748 1.704 3.099 254 201 123 3470 
22.751 1.706 3.096 254 201 123 3359 
22.751 1.706 3.092 254 201 123 3423 
22.753 1.707 3.089 254 201 123 3421 
22.752 1.706 3.084 254 201 125 3450 
22.753 1.707 3.08 254 201 125 3402 
22.753 1.707 3.077 254 201 125 3434 
22.75 1.705 3.071 253 199 125 3411 
22.75 1.705 3.066 254 198 124 3423 
22.749 1.704 3.062 254 198 124 3452 
22.754 1.707 3.06 252 198 124 3384 
22.751 1.705 3.054 253 199 125 3422 
22.753 1.706 3.051 253 199 125 3327 
22.751 1.705 3.046 252 198 124 3352 
22.751 1.705 3.042 254 198 124 3407 
22.751 1.705 3.038 253 197 123 3420 
22.747 1.703 3.032 251 195 121 3465 
22.752 1.706 3.03 252 196 122 3420 
22.748 1.703 3.024 253 197 123 3466 
22.753 1.706 3.022 253 200 124 3430 
22.753 1.706 3.018 254 201 125 3415 
22.752 1.706 3.013 254 201 125 3377 
22.752 1.706 3.009 255 199 124 3379 
22.751 1.705 3.005 254 198 124 3363 
22.752 1.705 3.001 254 198 124 3398 
22.749 1.703 2.995 253 197 123 3395 
22.752 1.706 2.993 253 197 123 3461 
22.749 1.704 2.987 252 196 122 3429 
22.752 1.705 2.985 252 196 122 3429 
22.748 1.703 2.978 252 196 122 3355 
22.753 1.705 2.976 252 196 122 3418 
22.751 1.704 2.971 252 196 122 3438 
22.749 1.703 2.966 251 197 123 3466 
22.751 1.704 2.963 251 198 122 3377 
22.751 1.704 2.959 253 200 124 3430 
22.752 1.704 2.955 253 201 125 3375 
22.751 1.704 2.951 255 203 127 3379 
22.751 1.704 2.946 255 203 127 3456 
22.75 1.704 2.938 254 202 126 3346 
22.752 1.705 2.934 253 201 125 3391 
22.752 1.704 2.93 254 201 125 3395 
22.751 1.704 2.926 254 201 125 3348 
22.747 1.702 2.92 255 201 127 3434 
22.752 1.704 2.918 254 202 127 3414 
22.75 1.703 2.913 254 202 127 3423 
22.75 1.704 2.909 254 202 127 3413 
22.75 1.703 2.905 254 202 127 3373 
22.751 1.703 2.901 254 202 127 3463 
22.751 1.704 2.897 254 202 127 3450 
22.75 1.703 2.893 252 203 127 3391 
22.749 1.703 2.888 252 203 127 3434 
22.751 1.703 2.885 252 203 127 3446 
22.752 1.704 2.881 254 202 127 3472 
22.753 1.704 2.877 254 202 127 3486 
22.751 1.704 2.873 254 202 127 3411 
22.749 1.702 2.868 254 202 127 3386 
22.75 1.703 2.864 254 202 127 3425 
22.751 1.703 2.86 254 202 127 3454 
22.75 1.703 2.856 254 202 127 3447 
22.751 1.703 2.852 255 201 127 3488 
22.749 1.702 2.847 254 200 126 3413 
22.75 1.703 2.844 254 200 126 3427 
22.748 1.702 2.838 254 200 126 3489 
22.751 1.703 2.836 254 200 126 3370 
22.751 1.703 2.832 254 200 126 3416 
22.749 1.702 2.827 253 201 126 3361 
22.749 1.702 2.823 253 201 126 3429 
22.751 1.703 2.819 254 202 127 3363 
22.749 1.702 2.814 255 203 127 3459 
22.753 1.704 2.812 254 202 126 3373 
22.753 1.704 2.808 253 201 125 3455 
22.75 1.702 2.803 252 201 122 3489 
22.751 1.703 2.799 253 202 123 3434 
22.751 1.703 2.795 255 202 124 3468 
22.751 1.703 2.791 254 202 126 3420 
22.752 1.703 2.788 255 203 127 3489 
22.748 1.701 2.781 255 203 127 3438 
22.751 1.702 2.779 254 202 126 3490 
22.749 1.701 2.774 255 203 127 3336 
22.754 1.704 2.772 254 202 126 3377 
22.75 1.702 2.766 254 202 126 3481 
22.753 1.704 2.764 254 202 126 3463 
22.748 1.701 2.757 253 201 125 3421 
22.75 1.702 2.754 254 202 126 3402 
22.752 1.703 2.751 253 201 125 3377 
22.752 1.702 2.747 253 201 125 3388 
22.752 1.703 2.743 253 201 126 3402 
22.751 1.703 2.739 253 201 126 3465 
22.753 1.704 2.735 254 200 126 3434 
22.751 1.703 2.731 254 200 126 3423 
22.754 1.704 2.728 254 200 126 3425 
22.754 1.704 2.724 254 200 126 3400 
22.749 1.701 2.717 252 198 124 3477 
22.754 1.704 2.716 253 199 125 3421 
22.75 1.701 2.71 254 200 126 3464 
22.752 1.702 2.707 252 198 124 3413 
22.747 1.7 2.7 252 198 124 3477 
22.751 1.702 2.698 253 199 125 3482 
22.75 1.701 2.694 254 200 126 3479 
22.751 1.701 2.69 253 199 125 3421 
22.751 1.702 2.686 252 198 126 3463 
22.751 1.702 2.682 253 196 125 3373 
22.755 1.704 2.68 253 196 125 3464 
22.751 1.701 2.674 252 198 126 3443 
22.753 1.703 2.671 252 198 126 3380 
22.754 1.703 2.667 251 197 125 3457 
22.753 1.703 2.663 250 196 126 3345 
22.755 1.703 2.66 251 197 127 3386 
22.751 1.701 2.654 251 197 127 3427 
22.752 1.702 2.651 251 196 129 3441 
22.753 1.723 3.253 254 201 131 3407 
22.756 1.724 3.251 254 200 130 3407 
22.75 1.721 3.243 253 199 127 3459 
22.752 1.722 3.24 253 199 127 3495 
22.753 1.722 3.236 254 200 128 3341 
22.751 1.721 3.231 253 201 128 3427 
22.753 1.722 3.228 254 202 129 3356 
22.75 1.72 3.222 253 203 130 3396 
22.753 1.722 3.219 253 203 130 3445 
22.749 1.719 3.212 253 203 130 3466 
22.754 1.723 3.211 252 202 129 3443 
22.752 1.721 3.206 253 203 130 3405 
22.752 1.722 3.201 254 204 131 3379 
22.752 1.722 3.197 253 203 130 3347 
22.751 1.721 3.193 252 202 129 3413 
22.753 1.722 3.189 253 203 130 3393 
22.753 1.722 3.185 253 203 130 3327 
22.753 1.721 3.181 252 202 129 3391 
22.752 1.721 3.176 252 202 129 3297 
22.753 1.721 3.172 253 203 130 3439 
22.749 1.719 3.166 253 203 130 3438 
22.751 1.721 3.163 254 201 131 3470 
22.752 1.721 3.159 254 201 131 3434 
22.75 1.72 3.154 254 202 129 3495 
22.752 1.721 3.151 254 202 129 3434 
22.75 1.72 3.146 254 202 129 3382 
22.753 1.722 3.143 253 201 128 3404 
22.75 1.72 3.137 254 202 127 3527 
22.754 1.722 3.135 254 202 127 3459 
22.752 1.721 3.13 255 203 128 3456 
22.755 1.722 3.127 254 202 127 3381 
22.753 1.721 3.122 254 202 127 3491 
22.754 1.722 3.118 252 200 125 3402 
22.754 1.721 3.114 253 201 126 3389 
22.752 1.721 3.108 253 201 126 3479 
22.755 1.722 3.106 253 201 128 3436 
22.751 1.72 3.1 254 202 127 3375 
22.756 1.722 3.098 253 201 128 3436 
22.752 1.72 3.091 254 202 127 3477 
22.754 1.721 3.088 254 202 127 3439 
22.753 1.721 3.084 254 202 127 3477 
22.751 1.72 3.079 254 202 129 3463 
22.752 1.72 3.075 255 201 129 3388 
22.751 1.72 3.071 254 200 128 3409 
22.753 1.72 3.067 253 199 127 3521 
22.751 1.719 3.062 253 199 127 3395 
22.756 1.722 3.06 253 199 127 3397 
22.753 1.72 3.054 253 199 127 3407 
22.754 1.721 3.051 254 201 131 3334 
22.755 1.721 3.047 254 201 131 3452 
22.753 1.72 3.042 253 200 130 3489 
22.755 1.721 3.039 252 199 129 3461 
22.75 1.719 3.032 252 198 126 3484 
22.754 1.721 3.03 252 198 126 3368 
22.752 1.72 3.025 254 197 126 3425 
22.755 1.721 3.022 254 197 126 3341 
22.753 1.72 3.017 254 197 126 3450 
22.751 1.719 3.012 252 198 126 3359 
22.756 1.721 3.01 253 199 127 3407 
22.751 1.718 3.003 253 199 127 3448 
22.752 1.719 3 252 198 126 3377 
22.751 1.719 2.995 251 197 127 3375 
22.754 1.72 2.992 251 197 127 3332 
22.751 1.718 2.987 251 197 127 3379 
22.757 1.722 2.986 251 197 127 3459 
22.752 1.719 2.979 251 197 127 3373 
22.753 1.719 2.975 252 198 126 3311 
22.755 1.721 2.972 252 198 126 3380 
22.752 1.719 2.966 251 197 125 3355 
22.755 1.721 2.964 251 197 123 3365 
22.75 1.718 2.958 252 198 124 3404 
22.752 1.719 2.954 252 198 124 3470 
22.751 1.718 2.95 252 198 124 3447 
22.756 1.721 2.948 253 201 128 3402 
22.751 1.718 2.942 253 201 128 3463 
22.752 1.718 2.938 255 203 130 3350 
22.751 1.718 2.933 253 201 128 3343 
22.75 1.717 2.928 252 200 127 3473 
22.751 1.718 2.925 253 201 128 3457 
22.75 1.717 2.921 254 202 129 3361 
22.755 1.72 2.919 254 202 129 3320 
22.75 1.717 2.912 251 197 125 3459 
22.753 1.719 2.909 251 199 126 3396 
22.752 1.719 2.905 253 201 128 3441 
22.752 1.718 2.901 252 202 129 3413 
22.754 1.719 2.897 253 203 130 3479 
22.75 1.717 2.892 253 203 130 3464 
22.752 1.718 2.889 253 203 130 3406 
22.752 1.718 2.884 253 203 130 3427 
22.754 1.72 2.881 253 203 130 3463 
22.751 1.717 2.876 254 202 129 3375 
22.753 1.719 2.873 254 202 129 3409 
22.752 1.718 2.868 254 202 129 3309 
22.753 1.718 2.864 253 201 128 3439 
22.754 1.719 2.861 253 201 128 3445 
22.75 1.716 2.854 253 201 128 3375 
22.753 1.719 2.852 253 201 128 3446 
22.748 1.715 2.846 254 202 129 3380 
22.753 1.718 2.844 254 202 129 3402 
22.75 1.717 2.838 254 200 128 3420 
22.753 1.719 2.836 254 200 128 3427 
22.754 1.719 2.832 253 199 127 3402 
22.752 1.717 2.827 253 199 127 3271 
22.753 1.718 2.824 253 199 127 3407 
22.751 1.717 2.818 254 200 128 3427 
22.754 1.719 2.816 253 201 126 3422 
22.751 1.717 2.81 254 202 127 3466 
22.752 1.717 2.807 255 203 128 3427 
22.75 1.716 2.801 255 203 128 3406 
22.753 1.718 2.799 253 204 128 3375 
22.751 1.717 2.794 253 204 128 3320 
22.751 1.716 2.79 254 205 129 3416 
22.754 1.718 2.787 254 205 129 3465 
22.75 1.716 2.781 254 205 129 3507 
22.752 1.717 2.778 253 204 128 3413 
22.752 1.717 2.774 253 203 130 3363 
22.753 1.717 2.77 253 203 130 3486 
22.753 1.717 2.767 253 201 126 3477 
22.754 1.718 2.763 253 201 128 3452 
22.754 1.718 2.759 253 201 128 3446 
22.752 1.717 2.754 252 202 129 3400 
22.751 1.716 2.749 252 202 129 3421 
22.754 1.718 2.747 252 202 129 3398 
22.751 1.716 2.741 252 202 129 3436 
22.752 1.716 2.737 254 202 129 3313 
22.753 1.717 2.734 253 201 128 3406 
22.753 1.717 2.73 253 201 128 3475 
22.753 1.717 2.726 253 201 128 3464 
22.755 1.718 2.723 253 201 128 3398 
22.751 1.716 2.717 253 201 126 3457 
22.751 1.716 2.713 253 201 128 3470 
22.752 1.716 2.709 252 200 127 3404 
22.753 1.716 2.705 253 201 128 3416 
22.753 1.716 2.702 253 201 128 3475 
22.754 1.717 2.699 253 201 128 3375 
22.753 1.717 2.694 253 201 128 3381 
22.753 1.717 2.69 253 201 128 3436 
22.754 1.717 2.686 253 201 128 3382 
22.752 1.716 2.682 253 201 128 3445 
22.752 1.716 2.677 252 200 127 3463 
22.753 1.716 2.674 252 200 127 3402 
22.752 1.716 2.669 253 199 129 3448 
22.754 1.716 2.666 253 199 129 3459 
22.754 1.717 2.662 252 198 128 3463 
22.754 1.717 2.658 251 196 129 3373 
22.751 1.715 2.653 252 198 128 3443 
22.752 1.716 2.649 252 198 128 3393 
22.75 1.721 3.252 254 201 131 3439 
22.749 1.72 3.246 254 200 130 3425 
22.749 1.72 3.242 253 199 127 3459 
22.75 1.721 3.239 253 199 127 3413 
22.747 1.719 3.233 254 200 128 3405 
22.751 1.721 3.231 253 201 128 3372 
22.749 1.719 3.225 253 203 130 3425 
22.753 1.722 3.223 253 203 130 3371 
22.75 1.72 3.217 253 203 130 3363 
22.753 1.722 3.214 253 203 130 3402 
22.751 1.721 3.209 252 202 129 3341 
22.75 1.72 3.204 253 203 130 3372 
22.752 1.721 3.201 254 204 131 3384 
22.749 1.72 3.196 253 203 130 3371 
22.751 1.721 3.192 252 202 129 3422 
22.75 1.72 3.188 253 203 130 3389 
22.749 1.719 3.183 253 203 130 3407 
22.747 1.718 3.178 252 202 129 3480 
22.751 1.721 3.175 252 202 129 3443 
22.749 1.719 3.17 253 203 130 3473 
22.748 1.719 3.165 253 203 130 3452 
22.751 1.72 3.163 254 201 131 3418 
22.749 1.719 3.157 254 201 131 3404 
22.752 1.721 3.155 254 202 129 3354 
22.751 1.72 3.15 254 202 129 3338 
22.751 1.72 3.146 254 202 129 3468 
22.751 1.72 3.142 253 201 128 3400 
22.751 1.72 3.137 254 202 127 3405 
22.748 1.719 3.131 254 202 127 3468 
22.753 1.721 3.13 255 203 128 3420 
22.75 1.72 3.124 254 202 127 3350 
22.752 1.721 3.121 254 202 127 3409 
22.75 1.719 3.116 252 200 125 3420 
22.748 1.718 3.11 253 201 126 3425 
22.751 1.72 3.108 253 201 126 3406 
22.749 1.718 3.102 254 202 127 3450 
22.752 1.72 3.1 253 201 128 3355 
22.748 1.718 3.094 253 201 128 3380 
22.75 1.719 3.091 254 202 127 3490 
22.751 1.72 3.087 254 202 127 3468 
22.751 1.719 3.083 254 202 129 3425 
22.753 1.72 3.079 254 202 129 3377 
22.749 1.718 3.074 255 201 129 3502 
22.752 1.72 3.071 253 199 127 3445 
22.75 1.719 3.065 253 199 127 3338 
22.753 1.72 3.063 253 199 127 3357 
22.75 1.719 3.057 253 199 127 3463 
22.752 1.72 3.054 253 199 127 3397 
22.751 1.719 3.049 254 201 131 3390 
22.749 1.718 3.044 254 201 131 3468 
22.751 1.72 3.041 253 200 130 3439 
22.747 1.717 3.035 252 199 129 3420 
22.752 1.72 3.033 252 198 126 3414 
22.749 1.718 3.027 252 198 126 3393 
22.752 1.72 3.025 254 197 126 3436 
22.75 1.718 3.019 254 197 126 3452 
22.752 1.72 3.016 254 197 126 3430 
22.752 1.72 3.012 252 198 126 3402 
22.75 1.718 3.007 253 199 127 3370 
22.751 1.719 3.003 253 199 127 3368 
