ply
format ascii 1.0
comment Author: CloudCompare (TELECOM PARISTECH/EDF R&D)
obj_info Generated by CloudCompare!
element vertex 1306
property float x
property float y
property float z
property uchar red
property uchar green
property uchar blue
property float scalar_Scalar_field
end_header
11.189 1.819 4.839 198 164 110 3379 
11.188 1.82 4.835 198 162 108 3402 
11.189 1.82 4.828 196 160 104 3309 
11.187 1.821 4.825 190 154 96 3313 
11.188 1.82 4.819 188 151 93 3384 
11.187 1.821 4.815 194 158 101 3259 
11.188 1.821 4.808 197 160 105 3327 
11.187 1.822 4.804 196 162 107 3388 
11.188 1.821 4.798 198 164 108 3320 
11.188 1.821 4.793 200 164 108 3330 
11.186 1.822 4.79 199 164 108 3352 
11.187 1.822 4.783 200 164 111 3338 
11.188 1.821 4.777 202 166 112 3400 
11.188 1.822 4.772 200 164 110 3390 
11.189 1.821 4.766 200 164 108 3429 
11.189 1.821 4.761 202 166 110 3495 
11.188 1.822 4.756 202 166 110 3436 
11.188 1.822 4.751 198 160 103 3340 
11.19 1.821 4.745 198 161 103 3438 
11.188 1.822 4.741 199 161 105 3452 
11.188 1.822 4.736 197 161 106 3371 
11.188 1.822 4.73 202 166 114 3420 
11.188 1.822 4.726 204 168 116 3348 
11.188 1.822 4.72 202 166 114 3332 
11.187 1.823 4.716 202 166 114 3311 
11.187 1.823 4.711 200 166 113 3371 
11.188 1.822 4.705 200 166 112 3339 
11.186 1.824 4.701 200 165 112 3284 
11.189 1.822 4.694 200 165 112 3336 
11.188 1.822 4.689 197 161 106 3409 
11.188 1.823 4.684 195 160 106 3241 
11.185 1.824 4.681 187 152 98 3290 
11.188 1.823 4.674 184 148 94 3250 
11.186 1.825 4.67 182 148 94 3293 
11.187 1.824 4.664 183 148 94 3309 
11.188 1.823 4.659 186 150 98 3288 
11.188 1.823 4.654 191 156 106 3167 
11.189 1.823 4.647 196 161 112 3273 
11.185 1.825 4.645 196 162 114 3315 
11.188 1.823 4.638 194 159 110 3247 
11.185 1.826 4.636 194 160 110 3311 
11.185 1.826 4.63 194 162 110 3354 
11.183 1.827 4.627 197 164 116 3363 
11.185 1.826 4.62 199 166 118 3293 
11.186 1.825 4.614 197 165 115 3314 
11.187 1.825 4.608 196 164 114 3329 
11.187 1.824 4.603 196 165 116 3327 
11.185 1.826 4.599 196 165 116 3275 
11.188 1.824 4.592 195 164 114 3431 
11.186 1.826 4.589 195 164 114 3338 
11.188 1.824 4.582 198 166 117 3402 
11.185 1.826 4.579 198 166 116 3279 
11.185 1.826 4.574 200 168 118 3382 
11.186 1.826 4.568 200 168 116 3332 
11.185 1.826 4.564 198 164 113 3291 
11.186 1.826 4.558 194 160 109 3339 
11.184 1.827 4.554 200 166 118 3286 
11.187 1.826 4.548 198 164 118 3279 
11.183 1.828 4.545 196 164 115 3318 
11.185 1.827 4.538 198 166 116 3346 
11.186 1.826 4.533 195 162 111 3306 
11.185 1.827 4.529 194 161 110 3256 
11.177 1.831 4.529 188 156 106 3179 
11.184 1.828 4.52 192 160 111 3213 
11.184 1.828 4.514 180 148 97 3097 
11.182 1.829 4.511 182 148 94 3182 
11.184 1.828 4.504 184 150 96 3131 
11.18 1.83 4.502 188 154 101 3254 
11.182 1.83 4.496 189 154 103 3264 
11.181 1.83 4.491 193 159 108 3213 
11.184 1.828 4.484 182 150 99 3196 
11.186 1.827 4.477 187 155 102 3266 
11.186 1.827 4.472 196 164 112 3288 
11.187 1.827 4.467 200 168 118 3252 
11.188 1.827 4.462 202 170 122 3259 
11.187 1.827 4.457 202 170 122 3340 
11.184 1.828 4.454 203 171 122 3290 
11.183 1.829 4.45 205 172 124 3227 
11.179 1.832 4.448 198 164 115 3167 
11.18 1.831 4.442 187 154 102 3209 
11.182 1.83 4.436 188 155 103 3207 
11.18 1.831 4.432 195 162 116 3223 
11.183 1.83 4.425 196 163 116 3250 
11.184 1.829 4.42 198 166 119 3252 
11.18 1.832 4.418 194 162 110 3225 
11.179 1.832 4.413 196 164 113 3211 
11.185 1.829 4.404 195 162 112 3322 
11.186 1.829 4.398 194 162 114 3300 
11.187 1.828 4.393 200 168 122 3321 
11.183 1.83 4.39 202 170 124 3352 
11.183 1.83 4.385 204 172 124 3375 
11.184 1.83 4.379 206 174 126 3313 
11.185 1.829 4.374 206 174 128 3361 
11.186 1.829 4.368 206 174 127 3252 
11.183 1.83 4.365 206 175 128 3293 
11.185 1.83 4.359 206 176 128 3340 
11.186 1.829 4.354 205 174 127 3277 
11.183 1.831 4.351 205 176 126 3329 
11.186 1.829 4.344 204 174 124 3255 
11.185 1.83 4.34 204 172 124 3145 
11.183 1.831 4.337 202 170 122 3187 
11.181 1.833 4.333 200 169 121 3182 
11.178 1.835 4.33 200 170 122 3061 
11.176 1.836 4.327 200 168 122 3132 
11.18 1.833 4.319 188 156 108 3094 
11.18 1.833 4.314 189 158 110 3145 
11.176 1.836 4.311 191 160 113 3044 
11.177 1.835 4.306 193 162 115 3179 
11.177 1.835 4.301 198 166 120 3176 
11.182 1.832 4.293 198 166 121 3185 
11.181 1.833 4.289 200 168 122 3286 
11.187 1.829 4.279 193 162 116 3254 
11.184 1.831 4.277 197 167 122 3343 
11.184 1.831 4.271 206 176 129 3325 
11.192 1.805 4.982 194 153 82 3352 
11.193 1.805 4.976 196 155 84 3359 
11.192 1.805 4.972 197 155 88 3338 
11.192 1.805 4.966 197 155 88 3377 
11.194 1.804 4.96 198 154 86 3434 
11.192 1.806 4.957 182 138 69 3322 
11.19 1.807 4.952 186 143 76 3300 
11.189 1.807 4.948 194 154 88 3356 
11.193 1.805 4.939 198 158 91 3320 
11.193 1.805 4.934 198 158 91 3370 
11.19 1.807 4.931 198 158 92 3345 
11.192 1.806 4.924 198 156 90 3300 
11.191 1.806 4.92 198 156 90 3329 
11.192 1.806 4.914 198 156 92 3420 
11.191 1.807 4.909 196 155 92 3334 
11.191 1.807 4.904 196 156 92 3404 
11.192 1.806 4.898 194 154 93 3375 
11.194 1.806 4.891 197 158 94 3293 
11.192 1.806 4.886 198 158 97 3368 
11.193 1.806 4.88 198 158 96 3346 
11.193 1.806 4.875 198 159 99 3370 
11.191 1.808 4.872 198 159 100 3320 
11.195 1.805 4.864 196 156 99 3318 
11.192 1.807 4.86 198 160 102 3330 
11.193 1.807 4.854 198 160 103 3396 
11.193 1.806 4.849 200 161 104 3325 
11.192 1.807 4.845 199 162 104 3332 
11.193 1.807 4.839 198 160 105 3322 
11.191 1.808 4.835 199 161 106 3286 
11.193 1.807 4.829 194 155 98 3343 
11.191 1.808 4.825 196 158 102 3340 
11.194 1.806 4.817 198 160 104 3348 
11.193 1.807 4.813 199 161 105 3373 
11.195 1.806 4.806 198 160 104 3307 
11.194 1.807 4.802 199 162 106 3391 
11.193 1.807 4.797 199 162 106 3361 
11.194 1.807 4.791 196 161 104 3320 
11.193 1.807 4.787 197 162 104 3345 
11.194 1.807 4.781 198 162 105 3377 
11.191 1.809 4.778 196 160 104 3286 
11.193 1.807 4.771 198 161 104 3441 
11.193 1.808 4.766 198 161 104 3264 
11.193 1.808 4.761 198 160 105 3379 
11.191 1.809 4.757 198 160 104 3434 
11.191 1.81 4.752 198 161 106 3320 
11.191 1.809 4.747 199 162 107 3311 
11.192 1.809 4.74 198 160 105 3264 
11.194 1.808 4.734 200 162 108 3357 
11.192 1.809 4.73 201 164 109 3382 
11.194 1.808 4.724 201 164 108 3420 
11.192 1.809 4.72 202 164 109 3359 
11.193 1.809 4.714 200 162 106 3382 
11.192 1.809 4.71 200 163 108 3290 
11.191 1.81 4.705 202 164 108 3277 
11.194 1.808 4.698 202 164 108 3261 
11.191 1.81 4.695 202 164 108 3345 
11.193 1.809 4.688 200 164 110 3286 
11.191 1.81 4.684 201 164 113 3316 
11.192 1.81 4.679 202 168 114 3329 
11.191 1.811 4.675 201 166 114 3327 
11.189 1.811 4.67 202 168 114 3343 
11.189 1.812 4.666 202 168 115 3323 
11.19 1.812 4.66 204 169 116 3311 
11.192 1.81 4.653 202 168 116 3345 
11.19 1.812 4.65 201 166 116 3359 
11.192 1.81 4.643 196 162 110 3325 
11.19 1.811 4.639 186 151 99 3343 
11.191 1.811 4.634 186 152 100 3277 
11.192 1.811 4.628 190 154 101 3434 
11.19 1.812 4.624 190 154 102 3286 
11.191 1.811 4.618 193 159 106 3288 
11.189 1.813 4.614 188 154 101 3298 
11.192 1.811 4.607 188 154 102 3375 
11.187 1.814 4.606 192 160 107 3334 
11.192 1.811 4.597 196 164 113 3307 
11.19 1.812 4.593 198 166 116 3225 
11.189 1.813 4.589 197 164 114 3304 
11.188 1.814 4.585 196 162 112 3375 
11.191 1.812 4.577 195 162 112 3345 
11.189 1.814 4.574 196 162 110 3331 
11.19 1.813 4.569 194 160 108 3361 
11.19 1.813 4.563 193 160 108 3452 
11.191 1.813 4.558 192 159 106 3302 
11.192 1.812 4.552 192 159 104 3364 
11.19 1.813 4.548 188 155 101 3321 
11.189 1.813 4.543 187 154 101 3350 
11.191 1.813 4.537 192 158 106 3391 
11.19 1.813 4.533 198 165 116 3331 
11.191 1.813 4.527 192 160 108 3365 
11.19 1.814 4.523 189 155 104 3329 
11.192 1.813 4.517 186 152 101 3377 
11.19 1.813 4.513 184 150 99 3375 
11.19 1.814 4.508 184 150 100 3388 
11.189 1.814 4.503 184 151 100 3356 
11.189 1.815 4.498 202 168 119 3370 
11.191 1.814 4.492 202 170 122 3395 
11.189 1.815 4.488 200 167 121 3320 
11.19 1.814 4.483 200 168 120 3298 
11.189 1.815 4.478 197 166 118 3370 
11.19 1.814 4.473 196 164 116 3289 
11.19 1.814 4.468 200 168 119 3296 
11.19 1.814 4.463 195 163 113 3323 
11.193 1.813 4.456 193 162 110 3293 
11.191 1.814 4.452 188 157 106 3388 
11.191 1.814 4.447 184 152 100 3323 
11.191 1.814 4.442 184 151 100 3330 
11.19 1.815 4.438 189 156 106 3293 
11.19 1.815 4.433 194 160 112 3345 
11.189 1.815 4.428 200 167 120 3411 
11.188 1.816 4.424 198 167 120 3423 
11.19 1.815 4.418 200 169 122 3325 
11.189 1.816 4.414 200 170 120 3439 
11.191 1.815 4.408 204 174 128 3315 
11.186 1.818 4.406 202 172 125 3334 
11.188 1.817 4.399 200 170 122 3366 
11.188 1.817 4.394 202 171 120 3381 
11.19 1.816 4.388 198 165 118 3375 
11.189 1.816 4.384 196 162 116 3279 
11.19 1.816 4.378 191 156 110 3382 
11.189 1.817 4.375 192 158 110 3355 
11.19 1.816 4.369 192 161 110 3398 
11.19 1.816 4.363 192 162 111 3334 
11.189 1.817 4.359 186 156 106 3334 
11.191 1.816 4.353 184 152 103 3368 
11.19 1.816 4.349 199 168 123 3413 
11.189 1.817 4.344 198 166 122 3386 
11.19 1.817 4.339 198 167 122 3384 
11.19 1.817 4.334 202 171 126 3277 
11.189 1.817 4.33 202 171 126 3320 
11.19 1.817 4.324 202 171 126 3404 
11.19 1.817 4.319 202 173 128 3370 
11.189 1.818 4.316 202 174 129 3327 
11.192 1.816 4.308 201 172 128 3409 
11.189 1.818 4.306 199 170 126 3420 
11.19 1.817 4.3 196 166 119 3338 
11.19 1.817 4.295 194 163 116 3325 
11.191 1.816 4.289 197 166 120 3345 
11.19 1.817 4.285 204 174 130 3318 
11.19 1.818 4.28 204 174 130 3406 
11.19 1.817 4.275 202 170 127 3382 
11.189 1.803 4.983 203 164 95 3372 
11.192 1.802 4.976 204 164 96 3356 
11.191 1.802 4.971 204 163 96 3330 
11.191 1.803 4.966 204 163 96 3388 
11.189 1.803 4.962 202 160 93 3390 
11.19 1.803 4.956 199 156 94 3352 
11.189 1.804 4.951 197 156 94 3377 
11.184 1.806 4.95 200 160 98 3400 
11.189 1.804 4.941 202 160 98 3329 
11.19 1.803 4.934 204 161 98 3379 
11.19 1.804 4.929 202 160 98 3348 
11.189 1.804 4.925 200 160 96 3236 
11.192 1.803 4.917 202 160 96 3345 
11.189 1.805 4.914 200 160 96 3441 
11.189 1.804 4.909 199 158 96 3352 
11.189 1.805 4.904 198 158 97 3414 
11.192 1.803 4.896 199 158 98 3370 
11.19 1.804 4.892 199 158 96 3338 
11.189 1.805 4.887 200 160 98 3415 
11.191 1.803 4.88 201 162 102 3320 
11.191 1.804 4.875 200 161 102 3329 
11.192 1.803 4.869 202 162 104 3315 
11.189 1.806 4.867 202 164 105 3345 
11.191 1.804 4.859 201 162 106 3402 
11.189 1.806 4.856 202 162 107 3305 
11.188 1.806 4.851 202 163 108 3318 
11.19 1.805 4.844 202 164 112 3304 
11.189 1.805 4.84 202 164 112 3329 
11.193 1.803 4.832 202 165 112 3263 
11.19 1.805 4.829 202 164 110 3322 
11.191 1.804 4.822 203 164 112 3381 
11.188 1.807 4.82 202 166 112 3379 
11.192 1.804 4.811 202 165 112 3343 
11.192 1.804 4.807 201 164 111 3327 
11.191 1.805 4.802 202 166 112 3414 
11.19 1.806 4.798 200 164 109 3346 
11.189 1.806 4.793 200 164 108 3330 
11.194 1.804 4.784 200 164 110 3318 
11.189 1.807 4.783 200 164 109 3340 
11.19 1.806 4.777 199 164 110 3275 
11.188 1.807 4.773 198 164 109 3393 
11.192 1.805 4.765 198 163 107 3221 
11.189 1.807 4.761 198 163 107 3377 
11.189 1.807 4.757 200 162 108 3398 
11.189 1.807 4.751 200 162 108 3325 
11.187 1.808 4.747 200 163 108 3315 
11.188 1.808 4.742 202 165 112 3254 
11.19 1.807 4.736 201 164 110 3309 
11.192 1.805 4.728 202 164 111 3359 
11.19 1.806 4.724 201 164 110 3375 
11.19 1.806 4.719 202 165 110 3300 
11.19 1.807 4.714 201 164 110 3364 
11.189 1.808 4.71 200 162 107 3263 
11.19 1.807 4.704 201 164 108 3275 
11.189 1.808 4.7 202 166 110 3245 
11.189 1.808 4.694 200 163 108 3356 
11.187 1.809 4.691 201 165 110 3289 
11.188 1.808 4.685 202 165 112 3261 
11.188 1.808 4.679 202 164 112 3309 
11.19 1.808 4.674 202 165 114 3334 
11.188 1.809 4.67 200 164 112 3280 
11.187 1.81 4.665 200 164 112 3354 
11.187 1.81 4.66 200 166 114 3313 
11.187 1.81 4.655 202 167 116 3377 
11.189 1.808 4.648 203 168 118 3375 
11.188 1.809 4.644 201 166 116 3325 
11.19 1.808 4.638 196 161 110 3348 
11.188 1.809 4.634 192 158 107 3306 
11.189 1.809 4.628 196 162 110 3395 
11.189 1.809 4.622 197 162 112 3340 
11.187 1.811 4.62 194 160 107 3264 
11.187 1.81 4.614 194 160 108 3293 
11.187 1.81 4.609 194 160 108 3364 
11.188 1.81 4.604 198 164 112 3379 
11.187 1.811 4.599 198 166 115 3338 
11.19 1.809 4.592 198 166 116 3250 
11.188 1.81 4.588 200 168 118 3388 
11.188 1.811 4.583 200 168 120 3373 
11.186 1.811 4.579 202 168 120 3334 
11.187 1.811 4.574 202 168 119 3329 
11.188 1.811 4.568 202 168 118 3359 
11.187 1.811 4.563 202 168 118 3493 
11.189 1.81 4.557 199 166 114 3348 
11.188 1.811 4.553 200 166 114 3357 
11.189 1.81 4.547 197 164 112 3338 
11.189 1.81 4.542 197 164 112 3379 
11.189 1.81 4.537 202 168 118 3350 
11.19 1.81 4.531 202 170 120 3363 
11.187 1.811 4.528 200 167 116 3330 
11.188 1.811 4.523 200 166 114 3323 
11.188 1.811 4.517 197 163 113 3422 
11.187 1.812 4.513 195 162 110 3368 
11.187 1.812 4.508 188 154 103 3377 
11.188 1.811 4.502 185 152 101 3363 
11.186 1.813 4.499 190 156 106 3368 
11.189 1.811 4.491 192 159 108 3373 
11.188 1.812 4.487 192 159 108 3346 
11.188 1.812 4.483 190 158 107 3273 
11.188 1.811 4.477 188 156 104 3388 
11.188 1.812 4.473 188 155 103 3304 
11.186 1.813 4.468 198 166 119 3311 
11.188 1.812 4.463 200 168 123 3315 
11.188 1.812 4.457 202 169 123 3321 
11.188 1.812 4.452 202 169 123 3409 
11.19 1.811 4.446 198 166 120 3338 
11.189 1.812 4.441 201 168 122 3359 
11.19 1.811 4.436 203 171 122 3327 
11.186 1.814 4.434 196 164 117 3321 
11.187 1.813 4.428 190 160 112 3352 
11.188 1.812 4.423 191 160 110 3436 
11.184 1.815 4.42 192 160 108 3291 
11.188 1.813 4.413 190 158 106 3386 
11.185 1.814 4.41 188 158 106 3357 
11.188 1.813 4.403 200 170 120 3330 
11.186 1.814 4.399 199 169 120 3372 
11.189 1.812 4.392 195 163 114 3402 
11.185 1.815 4.39 193 161 112 3366 
11.188 1.813 4.383 196 164 114 3288 
11.186 1.815 4.38 197 164 114 3366 
11.186 1.814 4.374 202 172 124 3400 
11.186 1.815 4.37 202 171 123 3393 
11.187 1.814 4.364 200 168 122 3352 
11.189 1.813 4.357 202 172 126 3338 
11.188 1.814 4.354 202 170 126 3375 
11.188 1.814 4.348 200 168 123 3354 
11.187 1.815 4.345 203 172 126 3370 
11.187 1.815 4.34 203 172 126 3377 
11.186 1.815 4.335 204 173 126 3265 
11.186 1.815 4.33 203 172 125 3350 
11.189 1.814 4.324 198 168 121 3407 
11.185 1.816 4.321 196 166 120 3361 
11.187 1.815 4.315 194 168 118 3372 
11.188 1.814 4.309 194 166 117 3393 
11.19 1.813 4.303 191 161 112 3431 
11.185 1.816 4.302 189 159 110 3318 
11.188 1.814 4.295 187 156 106 3338 
11.185 1.816 4.292 186 154 105 3295 
11.188 1.815 4.285 198 167 122 3375 
11.187 1.815 4.28 197 166 120 3382 
11.186 1.816 4.277 195 164 118 3398 
11.191 1.794 4.986 198 154 84 3313 
11.191 1.794 4.98 198 154 85 3414 
11.191 1.795 4.975 198 156 88 3325 
11.192 1.794 4.969 198 156 89 3350 
11.191 1.795 4.965 200 156 90 3338 
11.191 1.795 4.959 199 156 90 3327 
11.19 1.795 4.954 198 155 90 3384 
11.188 1.797 4.951 199 156 91 3277 
11.192 1.794 4.942 199 156 91 3241 
11.19 1.796 4.939 200 158 93 3293 
11.191 1.795 4.932 198 156 92 3277 
11.191 1.795 4.927 198 156 90 3273 
11.192 1.795 4.921 198 156 90 3357 
11.191 1.795 4.917 200 158 92 3271 
11.19 1.795 4.912 199 159 94 3268 
11.192 1.795 4.905 199 160 96 3389 
11.19 1.796 4.901 200 160 99 3336 
11.193 1.794 4.894 200 160 100 3359 
11.19 1.796 4.891 200 160 100 3311 
11.192 1.795 4.884 200 160 101 3393 
11.191 1.795 4.879 201 161 102 3355 
11.193 1.795 4.873 201 161 102 3420 
11.19 1.797 4.87 200 162 103 3345 
11.192 1.796 4.863 200 162 104 3330 
11.19 1.797 4.859 202 163 106 3291 
11.187 1.799 4.857 200 163 106 3300 
11.191 1.796 4.848 200 164 107 3248 
11.19 1.797 4.843 202 164 108 3402 
11.192 1.796 4.837 201 164 108 3252 
11.192 1.796 4.832 200 164 107 3271 
11.19 1.797 4.827 200 163 106 3352 
11.193 1.796 4.82 200 163 108 3343 
11.192 1.796 4.816 201 164 111 3346 
11.191 1.797 4.812 202 164 110 3304 
11.193 1.796 4.804 202 164 110 3306 
11.193 1.796 4.799 202 164 110 3302 
11.194 1.796 4.793 201 164 109 3311 
11.193 1.796 4.789 200 162 106 3309 
11.193 1.796 4.783 200 164 109 3325 
11.191 1.797 4.78 200 164 109 3375 
11.191 1.798 4.775 200 164 109 3350 
11.191 1.797 4.769 198 164 110 3295 
11.191 1.798 4.764 198 164 109 3293 
11.191 1.797 4.758 200 166 112 3288 
11.19 1.799 4.755 201 166 112 3347 
11.19 1.799 4.749 202 167 114 3373 
11.189 1.8 4.746 202 168 114 3297 
11.19 1.799 4.739 205 168 115 3370 
11.19 1.799 4.734 204 166 115 3368 
11.19 1.799 4.729 204 166 115 3386 
11.191 1.798 4.723 206 168 116 3332 
11.188 1.8 4.72 206 168 116 3341 
11.191 1.799 4.713 206 169 116 3348 
11.191 1.798 4.707 206 168 116 3393 
11.191 1.799 4.702 204 168 115 3273 
11.19 1.799 4.698 206 170 118 3318 
11.189 1.8 4.694 205 171 118 3339 
11.191 1.799 4.687 204 170 117 3281 
11.19 1.8 4.683 207 172 120 3370 
11.188 1.801 4.678 206 171 118 3390 
11.189 1.8 4.673 206 170 118 3398 
11.189 1.8 4.668 205 170 118 3409 
11.188 1.801 4.663 204 169 118 3386 
11.189 1.801 4.658 204 169 118 3279 
11.189 1.801 4.653 205 170 120 3306 
11.19 1.8 4.647 205 170 120 3384 
11.191 1.8 4.641 204 170 118 3398 
11.191 1.8 4.636 204 170 119 3450 
11.19 1.8 4.631 203 170 120 3443 
11.192 1.8 4.625 202 170 120 3330 
11.191 1.8 4.62 202 170 120 3377 
11.192 1.799 4.614 204 170 121 3422 
11.188 1.802 4.612 204 171 121 3402 
11.19 1.8 4.606 202 170 120 3361 
11.19 1.801 4.601 198 165 116 3379 
11.19 1.801 4.596 198 166 116 3427 
11.188 1.802 4.593 200 167 117 3329 
11.19 1.801 4.586 200 168 116 3322 
11.185 1.804 4.584 200 168 118 3334 
11.189 1.802 4.577 198 166 116 3372 
11.189 1.802 4.571 200 168 118 3352 
11.189 1.802 4.566 202 169 120 3350 
11.19 1.802 4.56 201 168 120 3390 
11.189 1.802 4.556 202 170 120 3345 
11.191 1.801 4.55 203 170 120 3347 
11.192 1.801 4.544 204 172 121 3425 
11.191 1.801 4.54 200 168 117 3409 
11.19 1.802 4.535 200 167 117 3363 
11.188 1.803 4.531 200 168 117 3345 
11.19 1.802 4.525 201 170 118 3355 
11.187 1.804 4.522 201 170 118 3320 
11.188 1.804 4.516 202 168 120 3329 
11.189 1.803 4.511 202 169 120 3309 
11.189 1.803 4.506 205 172 124 3404 
11.186 1.805 4.503 206 174 125 3354 
11.19 1.803 4.495 204 171 122 3393 
11.188 1.804 4.491 205 172 124 3315 
11.189 1.803 4.486 204 172 124 3332 
11.188 1.804 4.481 198 164 114 3386 
11.189 1.804 4.476 202 167 118 3357 
11.19 1.803 4.47 202 168 120 3325 
11.19 1.803 4.465 203 169 120 3393 
11.189 1.804 4.461 200 166 118 3422 
11.187 1.805 4.457 198 164 115 3398 
11.19 1.803 4.45 188 154 105 3436 
11.189 1.804 4.446 194 160 112 3370 
11.19 1.803 4.44 186 154 106 3363 
11.188 1.805 4.436 186 154 106 3448 
11.187 1.805 4.432 195 163 114 3309 
11.188 1.805 4.426 199 167 118 3354 
11.185 1.806 4.424 196 164 114 3298 
11.188 1.805 4.417 198 166 116 3279 
11.185 1.807 4.414 202 170 120 3377 
11.189 1.804 4.406 204 172 122 3338 
11.189 1.804 4.401 201 170 122 3446 
11.188 1.805 4.396 202 170 123 3357 
11.188 1.806 4.392 196 164 114 3384 
11.191 1.804 4.385 198 166 114 3420 
11.188 1.805 4.382 192 160 107 3450 
11.188 1.806 4.378 186 154 102 3386 
11.189 1.805 4.372 186 154 102 3481 
11.186 1.807 4.369 190 158 110 3300 
11.188 1.806 4.357 194 161 113 3423 
11.19 1.805 4.351 192 158 111 3359 
11.185 1.808 4.349 192 159 111 3300 
11.186 1.807 4.344 194 162 114 3364 
11.186 1.808 4.34 196 164 114 3414 
11.188 1.806 4.333 191 159 110 3436 
11.189 1.806 4.327 192 161 114 3311 
11.187 1.807 4.324 200 169 124 3331 
11.19 1.805 4.317 203 172 126 3340 
11.19 1.805 4.312 205 175 130 3413 
11.187 1.807 4.309 206 175 128 3293 
11.188 1.807 4.303 199 167 118 3379 
11.189 1.806 4.298 198 166 117 3350 
11.187 1.807 4.294 198 165 116 3336 
11.191 1.805 4.287 200 166 118 3320 
11.189 1.807 4.284 202 170 122 3370 
11.188 1.807 4.279 203 172 124 3325 
11.19 1.806 4.273 204 174 128 3339 
11.194 1.781 4.985 200 155 88 3327 
11.191 1.783 4.982 202 156 90 3305 
11.195 1.781 4.974 202 156 90 3347 
11.194 1.782 4.97 200 156 90 3329 
11.195 1.781 4.964 200 157 90 3305 
11.193 1.782 4.96 200 156 91 3330 
11.194 1.781 4.953 200 158 92 3304 
11.193 1.782 4.949 201 158 94 3409 
11.193 1.782 4.944 200 159 94 3388 
11.193 1.782 4.938 200 158 94 3189 
11.193 1.782 4.933 200 158 94 3193 
11.195 1.782 4.926 200 158 94 3281 
11.192 1.783 4.923 200 158 94 3315 
11.195 1.782 4.916 201 159 96 3284 
11.192 1.783 4.913 200 158 96 3250 
11.193 1.783 4.906 200 158 96 3330 
11.192 1.783 4.902 202 160 98 3331 
11.197 1.781 4.893 200 160 98 3329 
11.193 1.783 4.891 199 158 97 3311 
11.193 1.783 4.886 199 158 97 3290 
11.195 1.782 4.879 200 160 99 3389 
11.195 1.782 4.874 199 158 99 3334 
11.196 1.781 4.867 200 160 100 3345 
11.193 1.784 4.864 200 162 102 3291 
11.195 1.782 4.857 200 162 103 3304 
11.191 1.785 4.855 202 163 106 3290 
11.193 1.784 4.848 202 162 107 3336 
11.193 1.784 4.843 201 163 107 3305 
11.193 1.784 4.838 200 162 108 3223 
11.195 1.783 4.832 198 160 106 3370 
11.192 1.785 4.829 199 160 106 3293 
11.194 1.783 4.822 200 161 106 3322 
11.193 1.784 4.817 200 162 106 3315 
11.197 1.782 4.809 200 164 108 3318 
11.194 1.784 4.806 200 163 110 3336 
11.197 1.782 4.798 200 163 110 3395 
11.194 1.784 4.796 201 164 110 3370 
11.196 1.783 4.789 202 164 111 3340 
11.196 1.783 4.784 200 164 110 3407 
11.193 1.785 4.78 200 164 111 3315 
11.196 1.783 4.773 200 164 112 3370 
11.193 1.785 4.77 202 165 112 3411 
11.195 1.784 4.764 203 166 114 3393 
11.191 1.786 4.761 200 165 112 3338 
11.194 1.785 4.754 200 164 112 3282 
11.192 1.786 4.751 200 164 112 3266 
11.191 1.786 4.746 200 166 112 3227 
11.194 1.785 4.739 200 165 112 3311 
11.191 1.787 4.736 201 167 114 3345 
11.194 1.785 4.728 202 166 114 3296 
11.192 1.786 4.724 203 166 115 3409 
11.195 1.785 4.717 203 166 115 3234 
11.19 1.787 4.715 203 166 115 3304 
11.195 1.785 4.707 204 167 116 3357 
11.192 1.787 4.704 202 166 114 3365 
11.193 1.786 4.698 203 167 114 3316 
11.194 1.786 4.692 202 166 114 3343 
11.192 1.787 4.689 202 168 114 3286 
11.194 1.786 4.682 202 167 116 3375 
11.192 1.787 4.678 202 167 116 3320 
11.192 1.787 4.673 203 168 117 3311 
11.19 1.789 4.67 203 168 117 3295 
11.193 1.787 4.662 204 168 118 3352 
11.19 1.789 4.66 204 168 119 3350 
11.192 1.787 4.652 202 168 118 3354 
11.19 1.788 4.649 202 168 118 3325 
11.19 1.789 4.644 202 168 117 3314 
11.195 1.786 4.635 202 168 117 3348 
11.192 1.788 4.633 202 168 118 3364 
11.195 1.786 4.625 202 168 118 3402 
11.192 1.788 4.622 202 168 118 3361 
11.192 1.788 4.617 202 168 118 3388 
11.192 1.788 4.612 202 168 118 3314 
11.192 1.788 4.607 201 168 118 3372 
11.194 1.787 4.601 202 169 118 3386 
11.192 1.788 4.596 200 168 118 3380 
11.192 1.788 4.591 200 167 118 3338 
11.191 1.789 4.587 200 168 118 3381 
11.194 1.787 4.58 201 168 119 3290 
11.188 1.791 4.58 200 168 119 3275 
11.192 1.789 4.571 201 169 120 3377 
11.19 1.79 4.568 202 168 121 3336 
11.191 1.789 4.561 202 168 120 3330 
11.194 1.788 4.555 202 168 120 3306 
11.194 1.788 4.55 203 169 120 3286 
11.193 1.788 4.545 202 169 120 3384 
11.193 1.789 4.54 203 170 120 3375 
11.193 1.788 4.535 204 171 122 3366 
11.193 1.789 4.53 204 170 121 3345 
11.192 1.789 4.526 204 171 122 3338 
11.195 1.788 4.519 204 171 122 3459 
11.191 1.79 4.516 205 172 122 3377 
11.193 1.789 4.51 205 172 122 3277 
11.191 1.79 4.507 204 171 121 3363 
11.191 1.79 4.502 204 172 122 3298 
11.189 1.792 4.498 205 172 124 3371 
11.191 1.79 4.491 206 172 125 3300 
11.191 1.791 4.487 206 174 124 3314 
11.192 1.79 4.481 205 172 124 3306 
11.192 1.79 4.476 206 173 123 3405 
11.192 1.791 4.471 206 173 123 3373 
11.193 1.79 4.465 207 173 126 3391 
11.192 1.791 4.461 206 174 124 3293 
11.192 1.79 4.456 205 173 124 3355 
11.191 1.791 4.452 206 174 124 3354 
11.192 1.791 4.446 206 174 126 3371 
11.193 1.79 4.44 206 174 125 3307 
11.193 1.79 4.435 206 174 126 3431 
11.192 1.791 4.431 206 173 126 3404 
11.19 1.792 4.428 206 173 126 3293 
11.19 1.792 4.422 207 174 126 3375 
11.188 1.793 4.419 205 172 125 3340 
11.19 1.793 4.413 206 174 126 3355 
11.186 1.795 4.41 205 174 126 3302 
11.192 1.791 4.401 206 176 125 3298 
11.189 1.793 4.399 206 176 125 3263 
11.192 1.792 4.391 207 176 126 3346 
11.191 1.793 4.387 206 175 125 3388 
11.192 1.792 4.381 207 176 126 3332 
11.189 1.794 4.378 206 176 127 3334 
11.192 1.792 4.372 206 176 128 3459 
11.189 1.794 4.369 206 176 128 3306 
11.191 1.793 4.362 205 176 126 3354 
11.192 1.792 4.357 207 176 127 3389 
11.192 1.792 4.352 208 176 128 3389 
11.191 1.793 4.348 207 176 127 3321 
11.19 1.793 4.343 207 176 128 3402 
11.19 1.793 4.339 207 176 128 3295 
11.188 1.794 4.335 206 175 128 3354 
11.19 1.794 4.329 206 176 128 3263 
11.189 1.794 4.324 206 175 128 3286 
11.191 1.793 4.319 206 175 128 3370 
11.19 1.794 4.314 207 176 129 3365 
11.191 1.793 4.309 208 176 130 3372 
11.194 1.792 4.301 208 176 130 3359 
11.19 1.794 4.3 208 176 130 3293 
11.193 1.792 4.292 207 176 130 3372 
11.19 1.794 4.29 207 176 130 3384 
11.193 1.792 4.283 208 177 130 3361 
11.193 1.793 4.278 207 176 130 3286 
11.193 1.793 4.273 208 177 130 3352 
11.19 1.783 4.983 201 156 89 3331 
11.19 1.783 4.978 202 156 90 3368 
11.191 1.782 4.972 200 156 90 3325 
11.191 1.782 4.966 200 157 90 3270 
11.19 1.783 4.962 200 157 92 3395 
11.187 1.785 4.959 200 156 92 3302 
11.19 1.783 4.951 202 158 94 3293 
11.191 1.783 4.946 200 159 94 3271 
11.191 1.783 4.94 200 158 94 3197 
11.188 1.785 4.938 200 158 94 3289 
11.191 1.783 4.929 200 158 94 3261 
11.193 1.782 4.922 200 158 94 3323 
11.191 1.783 4.918 201 159 96 3345 
11.191 1.783 4.913 200 158 96 3386 
11.191 1.784 4.908 200 158 96 3302 
11.191 1.783 4.902 202 160 98 3457 
11.19 1.784 4.898 200 160 98 3254 
11.192 1.783 4.891 200 160 98 3427 
11.192 1.784 4.886 199 159 98 3298 
11.19 1.785 4.883 200 160 99 3302 
11.19 1.785 4.878 199 158 99 3290 
11.191 1.784 4.871 200 160 100 3275 
11.192 1.784 4.865 200 162 102 3334 
11.189 1.785 4.862 202 164 105 3300 
11.191 1.784 4.856 201 162 106 3277 
11.19 1.785 4.851 201 162 106 3321 
11.19 1.785 4.846 201 163 107 3341 
11.191 1.784 4.839 200 162 108 3348 
11.191 1.785 4.834 200 162 107 3295 
11.193 1.784 4.827 200 162 106 3361 
11.191 1.784 4.824 200 161 106 3329 
11.192 1.785 4.818 201 163 108 3352 
11.19 1.785 4.814 200 164 108 3309 
11.192 1.784 4.807 200 163 110 3325 
11.191 1.785 4.803 200 163 110 3352 
11.192 1.785 4.797 200 164 110 3334 
11.191 1.785 4.792 202 164 111 3329 
11.19 1.786 4.788 200 164 110 3364 
11.192 1.785 4.781 200 164 111 3282 
11.19 1.786 4.778 200 164 112 3318 
11.193 1.784 4.77 202 165 112 3343 
11.189 1.787 4.768 202 166 114 3366 
11.191 1.786 4.762 200 165 112 3380 
11.192 1.785 4.755 200 164 112 3329 
11.191 1.786 4.751 200 165 112 3318 
11.19 1.787 4.747 200 166 112 3373 
11.191 1.786 4.741 201 166 113 3304 
11.191 1.786 4.736 201 167 114 3341 
11.189 1.787 4.732 202 166 114 3311 
11.193 1.785 4.723 203 166 115 3427 
11.19 1.787 4.721 203 166 115 3352 
11.191 1.786 4.715 203 166 115 3364 
11.187 1.789 4.713 202 167 115 3346 
11.19 1.787 4.705 203 168 116 3318 
11.189 1.788 4.701 203 167 114 3273 
11.189 1.788 4.696 202 166 114 3336 
11.189 1.788 4.691 202 168 114 3377 
11.188 1.789 4.687 202 167 116 3322 
11.19 1.788 4.68 202 166 116 3327 
11.19 1.788 4.675 204 168 118 3279 
11.189 1.788 4.67 203 168 117 3272 
11.189 1.788 4.665 204 168 118 3370 
11.188 1.789 4.661 204 168 119 3380 
11.187 1.79 4.656 202 168 118 3259 
11.191 1.788 4.648 202 168 118 3390 
11.191 1.788 4.643 202 168 118 3382 
11.19 1.788 4.638 202 169 118 3354 
11.19 1.788 4.633 202 168 118 3348 
11.19 1.788 4.628 202 168 118 3293 
11.189 1.789 4.624 202 168 118 3338 
11.189 1.789 4.619 202 167 118 3323 
11.189 1.789 4.614 202 168 118 3332 
11.186 1.791 4.611 202 168 118 3352 
11.187 1.791 4.605 202 169 118 3286 
11.189 1.789 4.599 200 168 118 3363 
11.188 1.791 4.595 200 167 118 3420 
11.189 1.789 4.588 200 168 118 3415 
11.19 1.789 4.582 200 167 118 3377 
11.188 1.791 4.579 200 168 119 3368 
11.188 1.791 4.574 200 168 119 3396 
11.191 1.789 4.567 202 168 121 3311 
11.187 1.791 4.564 202 168 120 3306 
11.188 1.791 4.559 202 168 120 3309 
11.191 1.789 4.552 202 168 120 3348 
11.189 1.79 4.548 202 169 120 3425 
11.188 1.791 4.544 203 170 120 3386 
11.189 1.79 4.538 204 171 122 3275 
11.189 1.791 4.533 204 170 121 3318 
11.187 1.792 4.529 204 170 122 3320 
11.189 1.79 4.523 204 170 121 3334 
11.186 1.792 4.52 205 172 122 3346 
11.189 1.79 4.513 205 172 122 3363 
11.188 1.792 4.509 204 172 122 3334 
11.188 1.792 4.504 204 172 122 3338 
11.189 1.791 4.498 206 173 124 3388 
11.186 1.793 4.495 206 173 124 3409 
11.191 1.79 4.486 206 174 124 3290 
11.188 1.792 4.484 205 172 124 3395 
11.189 1.791 4.477 206 173 123 3418 
11.188 1.792 4.473 206 173 123 3302 
11.19 1.791 4.468 206 172 125 3311 
11.19 1.791 4.462 207 173 126 3316 
11.19 1.791 4.457 205 173 124 3305 
11.188 1.793 4.454 206 174 125 3318 
11.186 1.794 4.45 206 174 126 3354 
11.19 1.791 4.442 206 174 125 3327 
11.186 1.794 4.44 206 174 126 3313 
11.19 1.792 4.432 206 174 126 3275 
11.186 1.794 4.43 206 173 126 3363 
11.189 1.793 4.423 207 174 126 3377 
11.187 1.793 4.42 205 172 125 3388 
11.186 1.794 4.415 206 174 126 3350 
11.189 1.793 4.408 205 174 126 3389 
11.187 1.794 4.404 204 174 124 3343 
11.19 1.792 4.397 205 176 124 3263 
11.188 1.793 4.394 207 176 126 3350 
11.188 1.793 4.389 206 175 125 3446 
11.188 1.793 4.384 207 176 126 3327 
11.188 1.793 4.379 206 176 127 3359 
11.186 1.795 4.375 206 176 126 3402 
11.186 1.795 4.37 206 176 128 3365 
11.186 1.795 4.365 205 176 126 3322 
11.187 1.794 4.36 207 176 127 3352 
11.187 1.794 4.355 208 176 128 3395 
11.186 1.795 4.351 207 176 127 3364 
11.188 1.794 4.345 207 176 128 3379 
11.189 1.794 4.34 207 176 128 3370 
11.186 1.796 4.337 206 176 128 3365 
11.189 1.794 4.33 206 176 128 3354 
11.188 1.795 4.325 206 175 128 3356 
11.189 1.794 4.319 206 175 128 3282 
11.189 1.794 4.315 207 176 129 3370 
11.19 1.793 4.309 208 176 130 3366 
11.188 1.794 4.306 208 176 130 3420 
11.19 1.794 4.299 208 176 130 3370 
11.189 1.794 4.295 207 176 130 3418 
11.187 1.796 4.292 207 176 130 3320 
11.186 1.796 4.287 207 176 130 3368 
11.186 1.796 4.283 208 177 130 3338 
11.187 1.795 4.277 208 177 130 3407 
11.184 1.797 4.274 208 176 130 3361 
11.196 1.767 4.979 199 155 88 3256 
11.194 1.768 4.975 198 155 88 3268 
11.196 1.767 4.968 198 156 89 3300 
11.195 1.768 4.964 200 156 91 3293 
11.195 1.768 4.958 200 156 91 3286 
11.195 1.768 4.953 200 158 93 3318 
11.196 1.767 4.947 200 157 92 3365 
11.195 1.768 4.943 200 157 94 3350 
11.196 1.768 4.937 199 157 94 3329 
11.194 1.769 4.933 199 157 95 3270 
11.194 1.769 4.928 199 157 95 3336 
11.196 1.768 4.92 198 158 95 3282 
11.195 1.768 4.916 198 157 94 3379 
11.195 1.768 4.91 199 158 96 3370 
11.194 1.769 4.907 200 158 97 3368 
11.194 1.769 4.901 200 158 98 3268 
11.194 1.769 4.895 198 158 98 3397 
11.194 1.77 4.891 199 159 98 3213 
11.196 1.768 4.883 199 159 98 3354 
11.196 1.768 4.878 200 160 100 3352 
11.196 1.768 4.873 200 160 99 3256 
11.195 1.769 4.869 200 160 99 3293 
11.197 1.768 4.862 199 158 100 3388 
11.195 1.769 4.858 199 160 100 3318 
11.196 1.768 4.852 202 162 104 3322 
11.194 1.77 4.848 200 162 105 3371 
11.196 1.769 4.841 200 162 104 3354 
11.194 1.77 4.838 199 162 106 3270 
11.195 1.77 4.832 200 162 107 3434 
11.194 1.77 4.827 199 161 106 3295 
11.194 1.77 4.822 198 162 106 3379 
11.195 1.77 4.816 200 162 108 3250 
11.193 1.771 4.812 200 162 108 3265 
11.196 1.769 4.805 200 162 109 3430 
11.195 1.77 4.801 200 162 108 3321 
11.198 1.769 4.793 200 162 110 3327 
11.194 1.771 4.791 199 162 110 3314 
11.194 1.771 4.785 199 162 110 3343 
11.197 1.769 4.778 200 164 112 3375 
11.195 1.77 4.774 201 164 112 3363 
11.198 1.769 4.767 201 164 112 3436 
11.193 1.772 4.766 200 164 112 3286 
11.198 1.769 4.757 201 164 113 3321 
11.193 1.772 4.755 200 164 114 3327 
11.195 1.771 4.748 200 164 114 3254 
11.194 1.772 4.745 200 164 114 3348 
11.193 1.772 4.74 200 164 114 3298 
11.193 1.772 4.735 200 165 113 3314 
11.192 1.773 4.73 200 166 114 3339 
11.196 1.771 4.722 200 166 114 3347 
11.195 1.771 4.718 201 166 114 3327 
11.196 1.771 4.711 201 166 114 3320 
11.194 1.772 4.708 201 166 114 3291 
11.196 1.771 4.702 202 167 115 3355 
11.194 1.772 4.698 202 168 116 3302 
11.194 1.772 4.692 202 168 116 3384 
11.195 1.772 4.687 202 168 116 3416 
11.193 1.773 4.684 202 168 116 3416 
11.196 1.771 4.676 203 168 117 3286 
11.193 1.773 4.673 204 168 118 3234 
11.196 1.772 4.665 204 168 118 3318 
11.192 1.774 4.663 204 168 118 3413 
11.194 1.773 4.657 203 168 118 3352 
11.192 1.774 4.653 204 168 120 3350 
11.195 1.773 4.646 203 168 119 3309 
11.191 1.775 4.644 204 168 120 3329 
11.194 1.774 4.637 203 168 120 3309 
11.194 1.773 4.631 203 169 120 3354 
11.194 1.774 4.627 202 168 118 3438 
11.196 1.772 4.62 203 169 120 3268 
11.194 1.774 4.616 202 168 120 3331 
11.194 1.774 4.611 202 170 120 3334 
11.192 1.775 4.607 202 170 120 3409 
11.193 1.774 4.601 202 170 120 3404 
11.193 1.774 4.596 202 170 120 3314 
11.195 1.773 4.59 202 170 120 3447 
11.194 1.774 4.585 203 170 122 3364 
11.193 1.775 4.581 202 170 121 3409 
11.193 1.775 4.576 202 170 122 3325 
11.189 1.777 4.574 202 170 120 3379 
11.193 1.775 4.566 202 170 122 3311 
11.193 1.775 4.561 202 170 122 3379 
11.193 1.775 4.556 202 169 122 3415 
11.193 1.775 4.551 201 169 120 3302 
11.193 1.775 4.546 202 169 120 3377 
11.193 1.775 4.541 203 170 122 3391 
11.194 1.775 4.535 203 170 122 3306 
11.193 1.775 4.53 204 171 122 3397 
11.199 1.772 4.521 202 169 122 3486 
11.194 1.775 4.52 202 170 120 3352 
11.193 1.776 4.516 202 170 120 3348 
11.194 1.775 4.51 204 172 122 3306 
11.191 1.777 4.507 204 172 123 3355 
11.192 1.777 4.502 204 172 122 3347 
11.192 1.777 4.497 204 172 122 3336 
11.19 1.778 4.493 206 173 124 3368 
11.192 1.777 4.486 206 173 124 3314 
11.195 1.775 4.479 205 172 124 3345 
11.193 1.776 4.476 205 173 124 3370 
11.192 1.777 4.471 206 172 124 3327 
11.194 1.776 4.465 206 174 126 3347 
11.193 1.776 4.46 206 174 126 3268 
11.192 1.777 4.457 206 174 126 3377 
11.195 1.776 4.449 206 174 125 3384 
11.19 1.779 4.448 206 174 126 3325 
11.193 1.777 4.441 206 174 126 3293 
11.193 1.777 4.436 206 174 125 3254 
11.195 1.776 4.429 206 174 125 3352 
11.192 1.778 4.426 206 174 126 3363 
11.193 1.777 4.421 206 174 126 3325 
11.192 1.778 4.417 206 174 126 3336 
11.191 1.779 4.413 206 174 126 3268 
11.193 1.778 4.407 206 174 127 3311 
11.189 1.78 4.404 206 174 127 3366 
11.194 1.777 4.396 208 176 128 3384 
11.191 1.779 4.393 208 176 128 3321 
11.192 1.778 4.387 208 176 128 3329 
11.193 1.778 4.382 206 175 128 3329 
11.194 1.777 4.376 206 175 128 3391 
11.192 1.779 4.372 208 175 128 3320 
11.193 1.778 4.367 208 174 128 3397 
11.191 1.779 4.363 208 177 128 3373 
11.188 1.781 4.36 208 177 128 3279 
11.193 1.778 4.352 208 176 128 3355 
11.193 1.778 4.347 208 176 129 3363 
11.194 1.778 4.342 208 176 129 3352 
11.189 1.78 4.34 208 176 129 3302 
11.192 1.779 4.333 208 177 130 3307 
11.19 1.781 4.33 208 178 130 3393 
11.192 1.779 4.324 208 178 130 3370 
11.193 1.779 4.318 207 176 130 3354 
11.192 1.78 4.314 206 176 130 3314 
11.192 1.779 4.309 206 176 130 3332 
11.192 1.78 4.303 208 178 132 3295 
11.194 1.778 4.298 208 178 131 3306 
11.193 1.779 4.293 209 178 131 3425 
11.191 1.781 4.29 208 177 130 3396 
11.192 1.78 4.285 208 177 130 3293 
11.194 1.779 4.278 208 177 130 3366 
11.193 1.78 4.274 209 178 131 3272 
11.192 1.766 4.982 200 155 89 3218 
11.192 1.766 4.977 198 156 89 3345 
11.191 1.767 4.972 200 156 91 3331 
11.192 1.766 4.966 200 156 91 3345 
11.191 1.768 4.962 200 157 92 3293 
11.191 1.768 4.957 200 157 92 3252 
11.192 1.767 4.95 200 158 94 3370 
11.19 1.768 4.947 200 158 94 3320 
11.191 1.767 4.94 200 158 96 3325 
11.19 1.768 4.936 200 158 96 3318 
11.192 1.767 4.929 200 158 96 3318 
11.193 1.766 4.923 200 158 96 3393 
11.193 1.766 4.917 198 158 95 3409 
11.193 1.767 4.912 199 158 96 3350 
11.193 1.767 4.907 200 159 99 3355 
11.192 1.768 4.903 200 158 98 3393 
11.19 1.769 4.899 200 159 99 3320 
11.193 1.767 4.891 200 160 99 3339 
11.192 1.767 4.886 199 159 98 3252 
11.192 1.768 4.882 200 160 100 3293 
11.192 1.768 4.877 200 160 101 3184 
11.192 1.768 4.871 200 160 101 3273 
11.193 1.767 4.865 199 158 100 3356 
11.19 1.77 4.862 198 159 100 3338 
11.193 1.768 4.854 200 161 104 3306 
11.192 1.769 4.85 200 162 104 3255 
11.193 1.768 4.844 200 162 104 3348 
11.191 1.769 4.84 198 160 104 3371 
11.191 1.769 4.835 198 161 106 3252 
11.194 1.767 4.827 200 162 106 3315 
11.191 1.769 4.824 200 162 106 3365 
11.192 1.769 4.819 200 162 108 3252 
11.192 1.769 4.813 200 162 108 3232 
11.195 1.767 4.805 200 163 108 3336 
11.192 1.769 4.803 200 162 109 3327 
11.194 1.768 4.796 200 162 108 3325 
11.193 1.769 4.792 200 163 110 3380 
11.193 1.769 4.787 200 163 110 3332 
11.194 1.768 4.78 200 164 111 3489 
11.19 1.771 4.778 200 164 112 3368 
11.194 1.768 4.769 200 164 112 3279 
11.188 1.772 4.769 202 165 114 3296 
11.192 1.77 4.761 202 165 114 3243 
11.19 1.771 4.757 201 164 114 3386 
11.193 1.769 4.75 200 164 114 3309 
11.192 1.77 4.746 200 164 114 3297 
11.191 1.771 4.741 200 164 112 3379 
11.191 1.771 4.737 200 166 114 3361 
11.192 1.77 4.73 200 166 114 3388 
11.196 1.768 4.722 200 166 114 3402 
11.19 1.771 4.721 200 166 114 3372 
11.194 1.769 4.713 200 166 114 3416 
11.192 1.771 4.71 200 166 114 3338 
11.192 1.771 4.704 202 166 114 3364 
11.191 1.772 4.7 202 167 115 3334 
11.191 1.772 4.695 203 168 116 3320 
11.189 1.773 4.691 202 168 116 3361 
11.189 1.773 4.686 203 168 116 3393 
11.192 1.771 4.678 203 168 116 3445 
11.191 1.772 4.675 203 168 117 3286 
11.191 1.772 4.669 204 168 118 3279 
11.191 1.772 4.664 204 168 118 3396 
11.193 1.771 4.657 202 168 117 3250 
11.19 1.773 4.654 202 168 118 3372 
11.191 1.772 4.649 202 167 118 3343 
11.19 1.773 4.644 202 168 118 3332 
11.191 1.773 4.638 202 168 118 3375 
11.19 1.773 4.634 202 168 119 3375 
11.192 1.772 4.628 202 168 118 3348 
11.191 1.772 4.623 202 168 118 3293 
11.189 1.774 4.62 202 168 120 3375 
11.19 1.773 4.614 202 168 120 3314 
11.188 1.774 4.61 202 170 120 3311 
11.189 1.774 4.605 202 170 120 3350 
11.188 1.775 4.6 202 170 120 3320 
11.191 1.773 4.593 202 170 120 3284 
11.189 1.774 4.589 202 169 122 3185 
11.189 1.774 4.584 202 170 120 3380 
11.191 1.773 4.577 202 170 121 3395 
11.189 1.774 4.574 202 170 120 3300 
11.192 1.773 4.567 202 169 122 3431 
11.19 1.774 4.563 202 169 122 3334 
11.191 1.774 4.558 201 168 121 3389 
11.19 1.775 4.553 200 168 120 3323 
11.191 1.774 4.548 201 168 120 3295 
11.191 1.774 4.543 202 170 120 3406 
11.193 1.773 4.536 204 171 122 3307 
11.192 1.773 4.532 204 171 122 3347 
11.186 1.777 4.53 204 171 124 3309 
11.189 1.775 4.523 204 171 122 3354 
11.189 1.775 4.519 202 170 121 3307 
11.191 1.774 4.512 203 170 122 3334 
11.19 1.775 4.508 204 172 122 3327 
11.19 1.775 4.503 204 172 124 3289 
11.191 1.774 4.497 204 170 122 3279 
11.187 1.777 4.495 204 171 123 3350 
11.193 1.774 4.486 204 172 124 3370 
11.19 1.775 4.482 205 172 124 3350 
11.19 1.775 4.478 204 172 124 3314 
11.19 1.775 4.473 205 172 124 3446 
11.19 1.776 4.468 205 173 124 3311 
11.191 1.775 4.462 206 174 126 3359 
11.191 1.775 4.457 206 174 126 3371 
11.189 1.776 4.453 205 173 124 3307 
11.186 1.778 4.451 205 173 124 3361 
11.189 1.777 4.444 206 174 126 3329 
11.189 1.776 4.439 206 174 125 3350 
11.19 1.776 4.433 206 174 125 3418 
11.185 1.779 4.431 206 174 125 3329 
11.19 1.776 4.423 206 174 126 3325 
11.188 1.777 4.42 205 173 124 3366 
11.187 1.778 4.415 205 172 126 3318 
11.19 1.776 4.408 206 173 126 3334 
11.19 1.777 4.404 206 174 127 3359 
11.19 1.776 4.398 206 175 128 3329 
11.19 1.777 4.393 206 175 128 3320 
11.191 1.776 4.388 206 175 128 3375 
11.189 1.777 4.384 206 175 128 3329 
11.19 1.777 4.378 206 175 128 3313 
11.188 1.778 4.375 207 174 128 3311 
11.187 1.778 4.37 208 174 128 3289 
11.187 1.779 4.366 207 175 126 3291 
11.187 1.779 4.361 208 176 128 3373 
11.19 1.777 4.354 208 176 128 3305 
11.189 1.778 4.349 209 176 130 3280 
11.189 1.778 4.345 208 176 129 3420 
11.188 1.779 4.341 208 176 129 3371 
11.187 1.779 4.336 208 177 130 3311 
11.191 1.777 4.329 208 178 130 3320 
11.191 1.777 4.324 208 178 130 3370 
11.191 1.777 4.319 208 178 130 3413 
11.192 1.776 4.313 206 176 130 3332 
11.19 1.778 4.31 206 175 130 3396 
11.189 1.779 4.306 206 176 130 3282 
11.19 1.778 4.3 206 176 130 3315 
11.188 1.779 4.296 208 178 130 3330 
11.189 1.778 4.29 208 177 130 3359 
11.188 1.779 4.287 208 177 130 3332 
11.188 1.779 4.282 208 176 130 3386 
11.189 1.779 4.276 208 177 132 3363 
11.188 1.779 4.272 209 178 132 3363 
11.193 1.758 4.984 200 156 90 3284 
11.192 1.759 4.979 200 156 91 3371 
11.195 1.758 4.972 200 156 91 3286 
11.194 1.758 4.967 200 156 92 3368 
11.196 1.757 4.96 200 158 94 3323 
11.197 1.757 4.955 200 158 94 3345 
11.196 1.757 4.949 200 158 94 3411 
11.195 1.758 4.945 200 158 96 3225 
11.197 1.757 4.939 200 158 96 3259 
11.193 1.759 4.936 200 158 96 3327 
11.197 1.757 4.928 200 158 96 3363 
11.193 1.759 4.926 199 158 97 3338 
11.193 1.759 4.92 199 159 98 3334 
11.193 1.759 4.915 199 159 98 3270 
11.194 1.759 4.909 200 160 98 3357 
11.195 1.759 4.902 200 160 100 3313 
11.197 1.757 4.896 201 159 101 3429 
11.194 1.759 4.893 200 160 101 3361 
11.195 1.759 4.887 201 160 102 3347 
11.198 1.757 4.88 202 161 102 3293 
11.195 1.759 4.876 200 160 102 3402 
11.196 1.758 4.87 201 160 102 3368 
11.194 1.759 4.867 202 162 104 3338 
11.195 1.759 4.861 202 162 104 3375 
11.197 1.758 4.854 201 162 106 3366 
11.198 1.758 4.848 201 162 104 3361 
11.194 1.76 4.846 201 162 104 3338 
11.192 1.761 4.842 200 162 106 3339 
11.193 1.761 4.837 200 162 106 3243 
11.194 1.76 4.83 200 162 107 3295 
11.193 1.761 4.826 200 163 108 3334 
11.193 1.761 4.82 200 163 108 3288 
11.193 1.761 4.815 200 163 108 3370 
11.195 1.76 4.809 200 163 108 3268 
11.196 1.76 4.803 200 163 110 3393 
11.196 1.759 4.797 200 164 111 3350 
11.195 1.76 4.793 200 164 111 3347 
11.196 1.76 4.787 200 164 112 3415 
11.194 1.761 4.784 201 164 111 3373 
11.195 1.76 4.777 202 165 112 3330 
11.196 1.76 4.771 202 166 113 3347 
11.193 1.762 4.768 201 164 113 3400 
11.196 1.76 4.761 200 164 112 3379 
11.192 1.762 4.758 200 164 112 3245 
11.194 1.762 4.752 202 165 114 3305 
11.193 1.762 4.747 200 165 113 3305 
11.193 1.762 4.742 200 166 114 3347 
11.193 1.762 4.737 200 165 113 3409 
11.193 1.762 4.732 200 164 112 3415 
11.195 1.762 4.726 200 164 112 3347 
11.192 1.763 4.723 200 165 113 3404 
11.194 1.762 4.716 200 165 113 3320 
11.193 1.763 4.712 200 166 114 3273 
11.197 1.761 4.704 200 165 113 3395 
11.194 1.763 4.701 201 166 114 3361 
11.195 1.762 4.695 201 166 114 3368 
11.194 1.762 4.69 202 168 116 3371 
11.194 1.763 4.685 202 168 116 3288 
11.194 1.763 4.679 202 166 116 3339 
11.191 1.765 4.677 203 168 118 3327 
11.194 1.763 4.67 203 168 118 3393 
11.193 1.763 4.665 202 168 118 3309 
11.194 1.763 4.659 202 167 118 3391 
11.192 1.764 4.656 202 167 118 3370 
11.194 1.763 4.649 201 166 117 3340 
11.191 1.765 4.646 202 168 118 3277 
11.193 1.764 4.64 202 168 118 3415 
11.194 1.763 4.634 202 168 118 3255 
11.191 1.766 4.631 202 168 119 3227 
11.195 1.763 4.622 203 169 120 3381 
11.192 1.765 4.62 203 169 120 3365 
11.195 1.763 4.613 203 169 120 3371 
11.194 1.764 4.609 203 169 120 3338 
11.193 1.764 4.604 204 170 121 3288 
11.193 1.764 4.599 204 170 121 3368 
11.192 1.765 4.595 204 170 122 3325 
11.194 1.764 4.589 203 169 120 3368 
11.193 1.765 4.584 202 169 120 3279 
11.194 1.765 4.579 202 169 122 3368 
11.191 1.766 4.575 202 170 122 3295 
11.192 1.765 4.569 202 170 122 3304 
11.191 1.766 4.565 202 170 122 3339 
11.192 1.766 4.56 202 170 122 3352 
11.193 1.765 4.553 202 170 121 3388 
11.193 1.766 4.549 202 170 122 3277 
11.193 1.766 4.544 202 170 122 3380 
11.192 1.766 4.54 203 170 122 3370 
11.195 1.764 4.532 204 170 122 3318 
11.193 1.766 4.529 203 170 122 3321 
11.192 1.766 4.524 204 172 122 3343 
11.194 1.766 4.518 204 171 122 3286 
11.193 1.766 4.513 204 170 123 3297 
11.193 1.766 4.508 204 170 123 3413 
11.192 1.766 4.504 204 171 124 3405 
11.193 1.766 4.498 204 172 124 3321 
11.192 1.767 4.494 204 172 124 3332 
11.192 1.767 4.489 204 172 124 3309 
11.189 1.769 4.486 204 172 124 3347 
11.192 1.767 4.479 206 172 124 3304 
11.191 1.768 4.475 206 173 125 3365 
11.192 1.767 4.469 206 173 125 3313 
11.193 1.766 4.463 206 172 124 3332 
11.193 1.766 4.458 206 172 124 3300 
11.192 1.767 4.454 204 172 124 3366 
11.193 1.767 4.449 205 173 124 3329 
11.192 1.768 4.444 204 172 124 3336 
11.192 1.767 4.439 205 172 126 3284 
11.193 1.767 4.434 204 172 125 3359 
11.191 1.768 4.43 204 172 125 3282 
11.195 1.766 4.422 205 172 126 3371 
11.191 1.769 4.42 204 172 125 3256 
11.192 1.768 4.415 204 172 125 3363 
11.189 1.77 4.412 204 172 125 3273 
11.19 1.769 4.406 205 174 126 3302 
11.191 1.769 4.4 204 173 126 3363 
11.19 1.769 4.396 205 174 126 3411 
11.193 1.768 4.389 205 174 126 3381 
11.191 1.769 4.386 206 174 126 3327 
11.194 1.768 4.379 206 174 127 3375 
11.191 1.769 4.376 206 174 127 3334 
11.194 1.767 4.369 206 174 126 3421 
11.192 1.769 4.365 206 174 126 3347 
11.192 1.769 4.361 208 176 127 3371 
11.192 1.769 4.355 208 175 128 3372 
11.192 1.769 4.35 208 175 128 3318 
11.194 1.768 4.344 208 175 128 3359 
11.191 1.769 4.341 208 175 128 3361 
11.192 1.769 4.335 208 176 130 3370 
11.189 1.771 4.333 207 176 129 3365 
11.191 1.77 4.327 206 176 128 3327 
11.189 1.771 4.323 206 176 128 3286 
11.191 1.77 4.317 207 176 130 3289 
11.191 1.77 4.312 207 176 131 3404 
11.19 1.771 4.307 207 176 130 3384 
11.192 1.77 4.301 207 176 130 3352 
11.192 1.77 4.297 208 178 131 3313 
11.193 1.769 4.291 208 176 130 3322 
11.19 1.771 4.288 208 177 130 3345 
11.193 1.77 4.281 208 177 130 3395 
11.19 1.771 4.279 209 178 131 3427 
11.19 1.772 4.274 208 178 132 3209 
11.193 1.75 4.986 202 158 90 3259 
11.193 1.749 4.981 200 158 92 3366 
11.193 1.749 4.976 200 158 92 3297 
11.194 1.749 4.97 200 158 92 3340 
11.195 1.749 4.963 200 158 94 3309 
11.195 1.748 4.957 200 158 94 3229 
11.197 1.748 4.951 200 158 94 3352 
11.193 1.75 4.949 200 158 95 3284 
11.195 1.749 4.942 200 158 95 3263 
11.193 1.75 4.938 201 159 96 3345 
11.196 1.749 4.931 200 159 96 3229 
11.194 1.75 4.927 199 159 98 3348 
11.195 1.749 4.921 198 158 96 3382 
11.195 1.749 4.915 199 159 98 3411 
11.193 1.751 4.912 200 160 100 3332 
11.194 1.75 4.905 200 160 100 3318 
11.193 1.751 4.901 201 161 102 3305 
11.194 1.75 4.895 201 161 102 3239 
11.194 1.75 4.889 201 161 102 3306 
11.195 1.75 4.884 202 161 102 3355 
11.195 1.75 4.878 202 162 102 3296 
11.195 1.75 4.873 202 162 104 3275 
11.196 1.749 4.867 200 162 102 3313 
11.196 1.75 4.862 200 162 102 3320 
11.198 1.749 4.856 202 163 106 3247 
11.193 1.752 4.854 201 162 106 3406 
11.196 1.75 4.846 202 163 106 3373 
11.194 1.751 4.842 202 163 106 3280 
11.193 1.752 4.838 201 163 107 3290 
11.194 1.751 4.832 202 164 108 3311 
11.194 1.752 4.827 202 164 108 3327 
11.193 1.752 4.822 202 164 108 3297 
11.193 1.752 4.817 202 164 109 3247 
11.194 1.752 4.811 202 165 110 3322 
11.198 1.75 4.803 202 165 110 3277 
11.193 1.752 4.801 202 165 110 3314 
11.195 1.752 4.795 202 166 111 3263 
11.195 1.751 4.789 202 166 112 3402 
11.193 1.752 4.785 202 166 112 3311 
11.194 1.752 4.779 202 165 112 3357 
11.195 1.752 4.774 202 166 112 3350 
11.194 1.752 4.769 202 166 112 3377 
11.195 1.752 4.763 204 167 114 3363 
11.194 1.752 4.759 204 167 114 3354 
11.194 1.753 4.754 204 168 115 3363 
11.195 1.752 4.748 204 167 116 3329 
11.194 1.753 4.744 203 166 114 3366 
11.193 1.753 4.739 202 167 115 3325 
11.193 1.753 4.734 202 166 114 3395 
11.192 1.754 4.729 202 167 115 3372 
11.193 1.754 4.724 202 166 114 3388 
11.192 1.754 4.719 202 167 115 3404 
11.194 1.753 4.713 202 168 116 3395 
11.193 1.754 4.708 204 168 118 3409 
11.194 1.754 4.702 203 168 117 3395 
11.195 1.753 4.697 202 167 116 3409 
11.193 1.754 4.693 202 167 115 3404 
11.195 1.753 4.686 202 168 116 3340 
11.197 1.752 4.68 204 168 118 3397 
11.192 1.755 4.678 203 168 118 3265 
11.196 1.753 4.67 202 168 119 3323 
11.194 1.754 4.666 203 169 120 3266 
11.195 1.753 4.66 203 169 120 3355 
11.194 1.754 4.656 202 168 119 3273 
11.192 1.755 4.652 203 169 120 3357 
11.191 1.756 4.649 204 170 120 3366 
11.192 1.756 4.643 204 170 120 3279 
11.192 1.756 4.637 203 169 120 3179 
