ply
format ascii 1.0
comment Author: CloudCompare (TELECOM PARISTECH/EDF R&D)
obj_info Generated by CloudCompare!
element vertex 1307
property float x
property float y
property float z
property uchar red
property uchar green
property uchar blue
property float scalar_Scalar_field
end_header
11.182 1.88 1.53 196 162 111 3438 
11.183 1.88 1.526 196 162 111 3350 
11.184 1.88 1.522 196 162 110 3370 
11.184 1.879 1.518 195 161 110 3388 
11.182 1.881 1.514 195 161 110 3398 
11.182 1.881 1.511 194 160 110 3418 
11.182 1.881 1.507 195 161 110 3355 
11.18 1.882 1.504 196 162 112 3380 
11.182 1.88 1.5 196 162 111 3413 
11.184 1.88 1.496 196 162 111 3481 
11.183 1.881 1.492 195 161 110 3395 
11.185 1.879 1.488 195 161 112 3475 
11.183 1.88 1.484 196 162 112 3420 
11.183 1.88 1.481 196 162 112 3422 
11.181 1.881 1.478 196 163 114 3338 
11.181 1.881 1.474 196 162 113 3361 
11.183 1.881 1.47 196 162 113 3406 
11.185 1.879 1.466 196 162 112 3422 
11.184 1.88 1.462 194 162 112 3370 
11.183 1.88 1.458 194 162 112 3396 
11.183 1.881 1.455 195 163 113 3404 
11.182 1.881 1.452 196 164 114 3395 
11.183 1.881 1.448 197 164 114 3338 
11.183 1.88 1.444 196 163 114 3377 
11.181 1.882 1.44 196 164 114 3414 
11.182 1.881 1.436 196 164 115 3372 
11.181 1.882 1.433 196 164 116 3456 
11.183 1.881 1.429 196 164 116 3465 
11.185 1.879 1.425 196 164 116 3406 
11.183 1.88 1.421 197 165 116 3309 
11.184 1.88 1.417 196 164 116 3466 
11.181 1.882 1.415 196 164 116 3386 
11.183 1.881 1.41 197 165 116 3402 
11.183 1.881 1.407 197 165 116 3425 
11.184 1.88 1.403 198 166 116 3450 
11.185 1.88 1.399 198 166 117 3400 
11.185 1.88 1.395 198 166 117 3429 
11.183 1.88 1.392 198 166 117 3386 
11.181 1.882 1.389 198 166 117 3470 
11.182 1.882 1.385 196 166 116 3354 
11.18 1.883 1.381 195 165 116 3334 
11.18 1.883 1.377 195 165 116 3411 
11.181 1.882 1.374 196 166 116 3416 
11.182 1.882 1.37 196 166 116 3409 
11.183 1.881 1.366 196 166 116 3397 
11.182 1.881 1.362 196 166 117 3375 
11.184 1.881 1.358 196 166 117 3368 
11.18 1.883 1.355 196 166 117 3350 
11.183 1.881 1.351 196 166 118 3368 
11.181 1.882 1.347 197 166 118 3363 
11.184 1.881 1.343 197 166 118 3390 
11.182 1.882 1.34 198 167 118 3388 
11.184 1.881 1.336 196 164 116 3396 
11.184 1.881 1.333 196 164 117 3425 
11.183 1.881 1.329 196 165 118 3425 
11.182 1.882 1.325 197 166 120 3427 
11.18 1.883 1.322 197 166 120 3400 
11.181 1.882 1.318 198 168 121 3393 
11.181 1.883 1.315 198 169 122 3393 
11.184 1.881 1.31 199 168 122 3472 
11.181 1.882 1.307 198 168 120 3430 
11.184 1.881 1.303 198 168 120 3413 
11.184 1.881 1.299 198 168 120 3455 
11.181 1.882 1.296 198 168 120 3370 
11.183 1.881 1.292 198 168 120 3357 
11.183 1.881 1.288 198 168 121 3398 
11.182 1.882 1.285 198 168 122 3450 
11.184 1.881 1.281 199 168 122 3346 
11.182 1.882 1.278 198 168 121 3375 
11.183 1.881 1.274 198 168 121 3423 
11.184 1.881 1.27 198 168 122 3420 
11.182 1.882 1.266 198 168 122 3330 
11.18 1.883 1.263 198 169 123 3359 
11.18 1.883 1.259 198 169 123 3413 
11.184 1.881 1.255 198 169 123 3457 
11.181 1.883 1.252 198 168 122 3397 
11.182 1.882 1.248 198 168 122 3404 
11.182 1.883 1.244 198 168 121 3346 
11.183 1.881 1.24 198 168 124 3393 
11.181 1.883 1.237 198 169 124 3432 
11.184 1.881 1.233 198 169 124 3413 
11.184 1.881 1.229 198 169 124 3459 
11.184 1.881 1.222 200 170 126 3375 
11.185 1.881 1.218 200 170 126 3479 
11.186 1.88 1.214 199 170 124 3423 
11.185 1.88 1.211 200 170 125 3386 
11.182 1.882 1.208 199 170 125 3404 
11.181 1.883 1.204 199 170 125 3404 
11.182 1.882 1.2 199 170 125 3293 
11.182 1.873 1.75 188 146 78 3270 
11.184 1.872 1.746 188 146 78 3341 
11.182 1.874 1.743 188 146 78 3357 
11.185 1.872 1.738 188 148 80 3393 
11.181 1.875 1.736 189 148 80 3375 
11.184 1.872 1.731 188 148 80 3409 
11.182 1.874 1.728 188 148 80 3341 
11.182 1.874 1.724 190 148 82 3302 
11.182 1.874 1.72 191 150 84 3395 
11.181 1.874 1.716 192 150 84 3386 
11.184 1.873 1.712 192 150 86 3338 
11.184 1.873 1.708 192 151 86 3322 
11.184 1.872 1.704 192 150 86 3363 
11.182 1.874 1.701 192 150 88 3425 
11.186 1.872 1.696 190 150 87 3375 
11.183 1.873 1.694 190 150 87 3343 
11.183 1.873 1.69 190 150 87 3452 
11.182 1.874 1.686 191 152 90 3423 
11.182 1.874 1.683 192 152 90 3347 
11.182 1.874 1.679 190 151 88 3441 
11.178 1.876 1.676 190 152 88 3314 
11.183 1.873 1.671 190 152 88 3375 
11.182 1.874 1.667 192 152 92 3329 
11.178 1.877 1.665 192 153 92 3339 
11.183 1.873 1.659 192 152 92 3455 
11.181 1.875 1.656 190 152 91 3329 
11.183 1.874 1.652 189 151 90 3423 
11.183 1.874 1.649 190 152 90 3377 
11.185 1.872 1.644 189 151 89 3347 
11.184 1.873 1.641 190 152 91 3386 
11.185 1.872 1.637 190 152 93 3370 
11.181 1.875 1.634 194 156 96 3380 
11.184 1.873 1.629 194 157 100 3466 
11.182 1.874 1.626 195 158 100 3425 
11.181 1.875 1.623 193 158 100 3340 
11.183 1.874 1.618 193 158 100 3395 
11.18 1.876 1.615 192 156 101 3396 
11.182 1.874 1.611 192 156 100 3438 
11.182 1.874 1.607 192 156 100 3436 
11.182 1.875 1.604 190 156 100 3402 
11.183 1.874 1.599 192 158 102 3361 
11.181 1.875 1.596 193 158 103 3347 
11.181 1.875 1.593 194 160 104 3363 
11.181 1.875 1.589 195 159 104 3465 
11.183 1.874 1.585 194 158 104 3404 
11.184 1.873 1.581 196 159 104 3220 
11.184 1.874 1.577 196 159 104 3363 
11.181 1.875 1.573 194 159 104 3425 
11.183 1.874 1.57 194 159 105 3405 
11.184 1.873 1.566 192 158 104 3407 
11.181 1.875 1.562 194 159 105 3370 
11.182 1.874 1.558 194 158 104 3400 
11.181 1.876 1.555 194 159 106 3352 
11.183 1.874 1.551 196 159 108 3393 
11.18 1.876 1.548 195 160 108 3305 
11.183 1.875 1.544 195 160 108 3306 
11.182 1.875 1.54 194 160 108 3320 
11.182 1.875 1.536 194 161 108 3425 
11.18 1.876 1.533 194 162 110 3368 
11.18 1.876 1.529 194 161 108 3402 
11.185 1.873 1.524 194 160 108 3409 
11.182 1.875 1.521 194 160 108 3443 
11.185 1.873 1.517 193 160 108 3398 
11.183 1.874 1.514 194 161 110 3386 
11.183 1.875 1.51 194 160 110 3429 
11.183 1.875 1.506 194 160 110 3443 
11.18 1.876 1.503 194 160 110 3364 
11.182 1.875 1.499 194 160 110 3382 
11.181 1.876 1.495 194 160 110 3500 
11.184 1.874 1.491 194 160 109 3372 
11.181 1.876 1.488 194 160 110 3404 
11.183 1.875 1.484 195 161 110 3436 
11.181 1.876 1.48 195 161 112 3479 
11.182 1.876 1.476 196 162 112 3452 
11.182 1.876 1.473 196 162 112 3434 
11.182 1.875 1.469 194 162 112 3368 
11.184 1.874 1.465 194 162 112 3386 
11.185 1.874 1.461 194 162 112 3486 
11.187 1.873 1.457 196 164 114 3482 
11.183 1.875 1.454 196 164 114 3418 
11.186 1.873 1.45 196 164 114 3450 
11.183 1.875 1.446 197 164 114 3384 
11.183 1.875 1.443 197 164 115 3377 
11.182 1.876 1.439 198 164 116 3420 
11.179 1.877 1.436 198 164 116 3414 
11.183 1.875 1.432 196 164 116 3384 
11.182 1.876 1.428 196 164 116 3411 
11.181 1.876 1.425 197 165 116 3320 
11.181 1.876 1.421 198 166 116 3363 
11.182 1.876 1.417 197 165 116 3434 
11.18 1.877 1.414 197 165 116 3400 
11.182 1.876 1.41 197 165 116 3352 
11.182 1.876 1.406 198 166 117 3379 
11.182 1.876 1.402 197 165 116 3456 
11.183 1.875 1.398 196 164 116 3304 
11.183 1.875 1.395 197 165 116 3338 
11.183 1.875 1.391 197 165 116 3343 
11.182 1.876 1.387 196 164 116 3350 
11.184 1.875 1.383 197 165 116 3461 
11.182 1.876 1.38 196 166 116 3390 
11.182 1.876 1.376 196 166 116 3436 
11.183 1.876 1.373 196 166 116 3406 
11.184 1.875 1.369 196 166 117 3454 
11.181 1.877 1.365 196 166 117 3409 
11.181 1.877 1.362 197 167 118 3490 
11.181 1.876 1.358 198 168 118 3291 
11.184 1.875 1.354 197 166 118 3481 
11.182 1.876 1.35 196 166 117 3320 
11.184 1.875 1.346 196 166 117 3430 
11.182 1.876 1.343 197 166 118 3352 
11.182 1.876 1.339 197 166 118 3364 
11.183 1.875 1.335 196 165 116 3450 
11.184 1.875 1.331 196 166 118 3338 
11.184 1.875 1.328 197 166 118 3420 
11.183 1.875 1.324 198 167 120 3368 
11.183 1.876 1.321 198 167 120 3409 
11.183 1.876 1.317 198 168 122 3370 
11.182 1.876 1.313 198 168 122 3388 
11.182 1.876 1.31 199 168 122 3504 
11.183 1.876 1.306 198 168 120 3447 
11.182 1.876 1.302 199 168 121 3427 
11.18 1.878 1.299 199 168 121 3398 
11.179 1.878 1.296 200 168 122 3373 
11.183 1.876 1.291 200 168 122 3393 
11.183 1.876 1.288 198 168 122 3468 
11.184 1.876 1.284 198 168 120 3438 
11.185 1.875 1.28 199 169 121 3389 
11.18 1.878 1.277 198 168 120 3331 
11.184 1.875 1.272 199 169 121 3502 
11.182 1.877 1.269 199 169 121 3318 
11.185 1.875 1.265 198 168 120 3421 
11.18 1.878 1.262 198 168 122 3346 
11.182 1.876 1.258 198 168 122 3446 
11.183 1.876 1.254 198 168 122 3490 
11.18 1.878 1.251 198 168 121 3436 
11.183 1.876 1.247 198 168 122 3395 
11.181 1.878 1.244 198 168 122 3356 
11.182 1.877 1.24 198 167 122 3315 
11.18 1.878 1.236 198 168 124 3379 
11.182 1.877 1.232 200 169 124 3359 
11.181 1.877 1.229 200 170 126 3421 
11.182 1.877 1.225 200 170 126 3436 
11.185 1.875 1.221 199 170 124 3409 
11.18 1.878 1.218 198 169 124 3375 
11.185 1.875 1.214 198 169 124 3368 
11.182 1.877 1.21 200 170 125 3413 
11.184 1.876 1.206 199 170 125 3443 
11.184 1.876 1.203 198 170 124 3493 
11.188 1.861 1.751 190 146 78 3486 
11.187 1.861 1.748 189 148 78 3361 
11.187 1.861 1.744 189 148 79 3418 
11.187 1.861 1.74 190 147 79 3377 
11.184 1.863 1.737 190 148 80 3404 
11.186 1.862 1.732 189 147 80 3418 
11.183 1.864 1.73 190 148 81 3345 
11.186 1.862 1.725 190 149 82 3380 
11.184 1.863 1.722 190 148 82 3393 
11.187 1.862 1.717 190 148 83 3439 
11.186 1.862 1.714 188 146 82 3375 
11.185 1.863 1.71 189 148 82 3320 
11.186 1.863 1.706 189 148 82 3413 
11.186 1.863 1.702 186 144 80 3339 
11.19 1.86 1.698 186 144 80 3436 
11.186 1.862 1.695 185 144 80 3450 
11.189 1.86 1.69 188 148 84 3414 
11.185 1.863 1.688 188 148 86 3365 
11.186 1.862 1.683 190 152 90 3448 
11.186 1.862 1.68 191 153 92 3270 
11.183 1.864 1.677 192 154 94 3318 
11.183 1.864 1.673 192 154 94 3356 
11.185 1.863 1.669 192 154 92 3430 
11.184 1.864 1.665 192 154 94 3388 
11.183 1.865 1.662 193 155 96 3402 
11.185 1.863 1.658 192 154 94 3427 
11.183 1.864 1.654 193 155 96 3366 
11.186 1.863 1.65 194 156 96 3436 
11.184 1.864 1.643 192 154 95 3452 
11.186 1.863 1.639 192 154 94 3400 
11.186 1.863 1.635 192 154 96 3404 
11.187 1.862 1.631 192 154 96 3427 
11.184 1.864 1.628 191 154 96 3336 
11.187 1.862 1.623 192 154 97 3381 
11.184 1.864 1.62 192 154 97 3420 
11.184 1.864 1.617 192 155 98 3509 
11.182 1.865 1.613 192 156 100 3345 
11.182 1.865 1.609 192 157 101 3409 
11.184 1.864 1.605 194 158 102 3391 
11.184 1.864 1.601 194 159 103 3347 
11.186 1.863 1.597 193 158 102 3357 
11.181 1.866 1.595 194 160 104 3391 
11.187 1.862 1.589 194 159 103 3354 
11.182 1.865 1.587 194 159 102 3368 
11.188 1.862 1.582 195 158 102 3386 
11.185 1.864 1.579 195 158 102 3398 
11.185 1.864 1.575 194 158 101 3386 
11.187 1.862 1.571 193 158 102 3289 
11.185 1.864 1.567 194 158 102 3382 
11.187 1.863 1.563 194 158 104 3384 
11.185 1.864 1.56 194 158 104 3350 
11.185 1.864 1.556 194 158 104 3438 
11.183 1.865 1.553 194 160 106 3315 
11.182 1.865 1.55 195 160 106 3309 
11.186 1.863 1.545 194 160 106 3359 
11.184 1.864 1.542 196 162 109 3334 
11.183 1.865 1.538 196 162 110 3370 
11.182 1.866 1.535 196 162 107 3398 
11.185 1.864 1.53 194 160 106 3438 
11.182 1.865 1.527 194 160 105 3373 
11.186 1.863 1.523 194 160 106 3388 
11.185 1.864 1.519 194 160 106 3325 
11.186 1.863 1.515 193 160 106 3366 
11.186 1.863 1.511 194 161 110 3372 
11.186 1.863 1.508 195 162 110 3461 
11.187 1.863 1.504 194 161 110 3395 
11.185 1.864 1.5 194 161 110 3443 
11.186 1.863 1.496 194 161 110 3359 
11.184 1.865 1.493 194 161 110 3438 
11.184 1.865 1.486 196 162 112 3439 
11.185 1.864 1.482 197 163 112 3431 
11.185 1.864 1.478 197 164 112 3414 
11.184 1.865 1.475 197 164 112 3445 
11.183 1.865 1.471 196 162 111 3429 
11.181 1.867 1.468 196 162 111 3407 
11.184 1.865 1.464 196 164 112 3452 
11.184 1.865 1.46 197 164 113 3370 
11.185 1.864 1.456 198 164 113 3379 
11.187 1.863 1.452 198 164 114 3497 
11.186 1.864 1.448 198 164 114 3470 
11.187 1.863 1.444 198 164 114 3452 
11.186 1.863 1.441 198 164 114 3429 
11.187 1.863 1.437 198 164 114 3415 
11.185 1.865 1.434 198 164 114 3456 
11.184 1.865 1.43 197 164 114 3372 
11.185 1.864 1.426 197 164 114 3461 
11.186 1.864 1.423 198 165 115 3427 
11.184 1.865 1.419 198 166 116 3372 
11.184 1.865 1.415 197 165 116 3432 
11.184 1.865 1.411 198 166 117 3434 
11.182 1.866 1.408 198 166 116 3493 
11.185 1.865 1.404 197 165 115 3404 
11.181 1.867 1.401 197 165 115 3407 
11.183 1.866 1.397 197 165 115 3418 
11.185 1.865 1.393 198 166 116 3471 
11.186 1.864 1.389 197 165 116 3406 
11.187 1.864 1.385 198 166 117 3450 
11.186 1.864 1.382 198 166 118 3356 
11.184 1.866 1.379 197 165 116 3345 
11.186 1.864 1.374 198 166 117 3339 
11.185 1.865 1.371 197 166 116 3486 
11.185 1.865 1.367 197 166 116 3420 
11.185 1.865 1.363 197 166 116 3364 
11.185 1.865 1.36 198 167 116 3438 
11.186 1.864 1.356 198 167 116 3405 
11.183 1.866 1.353 196 166 116 3355 
11.182 1.867 1.349 196 166 116 3343 
11.183 1.866 1.345 197 165 116 3389 
11.183 1.866 1.341 196 164 116 3368 
11.183 1.866 1.338 196 164 116 3368 
11.185 1.865 1.334 198 166 116 3390 
11.187 1.864 1.33 198 167 118 3404 
11.186 1.864 1.326 198 168 118 3404 
11.186 1.865 1.323 198 167 118 3377 
11.185 1.865 1.319 198 168 118 3382 
11.185 1.865 1.315 198 168 119 3455 
11.186 1.865 1.312 198 168 119 3450 
11.187 1.864 1.308 198 168 119 3477 
11.185 1.865 1.304 198 168 120 3464 
11.187 1.864 1.3 199 169 121 3496 
11.183 1.866 1.297 198 168 120 3391 
11.184 1.866 1.293 198 168 120 3388 
11.181 1.868 1.29 198 168 120 3389 
11.185 1.866 1.286 198 168 120 3373 
11.18 1.868 1.283 198 168 120 3411 
11.184 1.866 1.279 198 168 120 3439 
11.186 1.865 1.275 198 168 119 3395 
11.183 1.867 1.272 200 168 119 3370 
11.187 1.864 1.267 200 168 119 3400 
11.187 1.865 1.264 200 168 119 3432 
11.184 1.866 1.26 198 168 120 3370 
11.186 1.865 1.256 198 168 119 3441 
11.184 1.866 1.253 199 169 120 3384 
11.185 1.865 1.249 198 168 120 3506 
11.183 1.867 1.246 199 169 121 3452 
11.185 1.866 1.242 198 168 120 3388 
11.184 1.866 1.238 199 168 122 3434 
11.185 1.866 1.234 198 168 122 3429 
11.182 1.868 1.231 200 170 123 3375 
11.184 1.866 1.227 200 170 123 3415 
11.183 1.867 1.224 200 169 124 3396 
11.183 1.867 1.22 200 169 122 3357 
11.185 1.865 1.216 201 170 124 3391 
11.182 1.867 1.213 201 170 125 3409 
11.184 1.866 1.209 201 172 126 3434 
11.185 1.865 1.205 200 170 124 3414 
11.185 1.866 1.201 199 170 125 3350 
11.18 1.861 1.752 188 144 76 3439 
11.184 1.858 1.748 188 146 78 3372 
11.184 1.859 1.744 186 144 76 3450 
11.179 1.862 1.742 186 144 76 3348 
11.182 1.86 1.737 186 144 77 3395 
11.181 1.861 1.733 187 146 78 3452 
11.182 1.86 1.729 188 148 80 3355 
11.182 1.86 1.726 189 148 82 3402 
11.185 1.859 1.721 189 148 82 3450 
11.182 1.86 1.718 190 148 83 3454 
11.183 1.86 1.714 188 147 82 3452 
11.182 1.86 1.71 189 148 82 3448 
11.184 1.859 1.706 190 148 82 3445 
11.185 1.859 1.702 190 148 84 3361 
11.182 1.861 1.699 190 148 85 3443 
11.186 1.858 1.694 188 149 86 3455 
11.183 1.86 1.691 189 150 88 3350 
11.184 1.859 1.687 189 150 88 3365 
11.182 1.861 1.684 190 151 90 3370 
11.178 1.863 1.681 190 152 92 3231 
11.182 1.861 1.677 192 154 93 3281 
11.179 1.862 1.673 193 155 94 3336 
11.182 1.861 1.669 193 155 94 3402 
11.181 1.861 1.666 192 154 94 3388 
11.184 1.86 1.661 192 154 94 3384 
11.18 1.862 1.659 192 154 95 3463 
11.185 1.859 1.653 193 155 96 3379 
11.182 1.861 1.651 193 155 96 3440 
11.183 1.86 1.646 192 154 96 3446 
11.184 1.86 1.642 192 154 96 3447 
11.182 1.861 1.639 192 154 96 3393 
11.184 1.86 1.635 192 154 96 3402 
11.181 1.862 1.632 192 154 96 3420 
11.184 1.86 1.627 190 154 96 3379 
11.181 1.862 1.624 191 154 96 3430 
11.181 1.862 1.621 191 154 96 3393 
11.182 1.861 1.617 192 156 99 3421 
11.177 1.864 1.614 192 156 100 3302 
11.184 1.86 1.609 192 156 100 3409 
11.181 1.862 1.606 194 158 102 3371 
11.182 1.861 1.602 194 158 102 3334 
11.18 1.862 1.599 193 158 102 3329 
11.183 1.861 1.594 194 159 103 3388 
11.181 1.862 1.591 194 158 102 3329 
11.184 1.86 1.586 194 157 100 3420 
11.184 1.86 1.582 194 157 100 3420 
11.184 1.86 1.579 194 158 102 3379 
11.184 1.86 1.575 192 158 100 3446 
11.181 1.862 1.572 192 158 100 3390 
11.183 1.861 1.568 192 158 101 3338 
11.183 1.861 1.564 194 159 103 3420 
11.18 1.863 1.561 194 159 103 3465 
11.18 1.862 1.557 194 159 104 3389 
11.178 1.864 1.554 194 160 106 3345 
11.181 1.862 1.549 195 160 106 3300 
11.182 1.861 1.546 194 160 106 3323 
11.181 1.862 1.542 196 162 107 3277 
11.18 1.862 1.538 195 161 106 3341 
11.18 1.863 1.535 195 160 106 3384 
11.181 1.862 1.531 194 160 105 3393 
11.182 1.861 1.527 193 159 104 3363 
11.181 1.862 1.523 193 159 104 3347 
11.183 1.861 1.519 193 159 106 3427 
11.183 1.861 1.516 194 160 106 3420 
11.182 1.861 1.512 196 162 109 3368 
11.183 1.861 1.504 195 162 110 3366 
11.183 1.861 1.501 195 160 110 3375 
11.182 1.862 1.497 196 161 110 3368 
11.179 1.863 1.494 196 162 111 3377 
11.182 1.862 1.49 197 162 112 3438 
11.181 1.863 1.486 198 163 112 3380 
11.181 1.862 1.482 196 162 111 3398 
11.181 1.863 1.479 196 163 112 3429 
11.181 1.862 1.475 196 162 112 3454 
11.181 1.863 1.471 196 162 112 3475 
11.182 1.862 1.468 197 163 112 3434 
11.182 1.862 1.464 198 164 114 3418 
11.181 1.862 1.46 198 164 114 3368 
11.183 1.862 1.456 198 164 113 3334 
11.183 1.861 1.452 198 164 113 3489 
11.182 1.862 1.449 198 164 114 3379 
11.182 1.862 1.445 198 164 114 3459 
11.182 1.862 1.442 198 164 114 3340 
11.182 1.862 1.438 197 164 114 3384 
11.18 1.863 1.435 197 164 114 3455 
11.18 1.863 1.431 196 164 114 3318 
11.182 1.862 1.427 197 166 115 3415 
11.18 1.863 1.423 196 165 114 3379 
11.18 1.863 1.419 196 165 114 3359 
11.182 1.862 1.415 196 164 116 3405 
11.179 1.864 1.412 197 165 116 3443 
11.182 1.862 1.408 198 165 116 3468 
11.184 1.861 1.404 197 165 115 3416 
11.183 1.862 1.401 197 165 115 3465 
11.182 1.862 1.397 198 166 116 3384 
11.182 1.862 1.393 198 166 116 3450 
11.185 1.861 1.389 197 165 115 3348 
11.184 1.861 1.385 198 166 116 3421 
11.183 1.862 1.382 198 166 116 3400 
11.18 1.864 1.379 198 166 116 3368 
11.18 1.864 1.375 198 166 116 3332 
11.18 1.863 1.371 198 166 116 3422 
11.181 1.863 1.368 198 166 116 3379 
11.182 1.863 1.364 198 166 116 3264 
11.183 1.862 1.36 198 166 116 3490 
11.179 1.864 1.357 198 166 116 3480 
11.178 1.865 1.353 198 166 117 3425 
11.182 1.862 1.349 198 166 116 3338 
11.183 1.862 1.345 198 166 117 3475 
11.181 1.863 1.342 197 165 116 3390 
11.182 1.863 1.338 197 165 116 3396 
11.182 1.863 1.334 197 165 116 3400 
11.183 1.862 1.33 196 166 117 3305 
11.183 1.862 1.327 196 166 116 3421 
11.182 1.863 1.323 196 166 117 3388 
11.182 1.863 1.319 198 168 118 3357 
11.181 1.863 1.316 199 168 120 3434 
11.182 1.863 1.312 198 168 119 3370 
11.181 1.864 1.309 198 168 118 3386 
11.182 1.863 1.305 198 168 119 3464 
11.182 1.863 1.301 199 169 120 3421 
11.182 1.863 1.298 198 168 120 3386 
11.179 1.864 1.294 198 168 120 3443 
11.182 1.863 1.29 198 168 120 3348 
11.182 1.863 1.286 198 168 119 3315 
11.181 1.863 1.283 198 168 119 3409 
11.181 1.863 1.279 198 168 119 3365 
11.182 1.863 1.275 200 168 119 3332 
11.183 1.863 1.271 200 168 119 3459 
11.184 1.862 1.268 200 168 119 3438 
11.181 1.863 1.264 200 168 120 3416 
11.184 1.862 1.26 200 168 119 3355 
11.18 1.864 1.257 199 169 120 3357 
11.181 1.864 1.253 199 169 120 3363 
11.182 1.863 1.25 199 169 120 3430 
11.183 1.862 1.246 200 170 122 3431 
11.176 1.867 1.243 199 169 121 3389 
11.182 1.863 1.238 200 170 122 3421 
11.179 1.865 1.236 199 168 122 3418 
11.181 1.863 1.231 200 170 124 3411 
11.18 1.864 1.228 200 170 124 3402 
11.181 1.864 1.224 200 170 123 3388 
11.181 1.864 1.22 200 170 123 3350 
11.182 1.863 1.216 200 170 123 3384 
11.183 1.863 1.212 200 170 124 3386 
11.183 1.862 1.209 200 170 124 3507 
11.184 1.862 1.205 200 170 124 3479 
11.184 1.862 1.201 200 170 124 3436 
11.189 1.847 1.753 191 148 81 3366 
11.186 1.848 1.75 192 149 82 3459 
11.189 1.847 1.745 192 150 84 3450 
11.19 1.846 1.742 192 150 84 3413 
11.187 1.847 1.738 192 151 86 3450 
11.188 1.847 1.734 192 152 85 3397 
11.187 1.847 1.731 192 152 85 3450 
11.189 1.847 1.726 192 152 85 3393 
11.186 1.848 1.724 193 152 86 3425 
11.189 1.847 1.719 194 152 86 3455 
11.184 1.85 1.717 194 152 88 3338 
11.185 1.849 1.712 194 154 90 3404 
11.184 1.849 1.709 194 154 90 3395 
11.185 1.849 1.705 194 152 90 3498 
11.186 1.848 1.701 194 152 90 3429 
11.185 1.849 1.698 195 154 92 3396 
11.188 1.847 1.693 194 155 92 3472 
11.185 1.849 1.69 194 154 91 3375 
11.188 1.847 1.685 194 154 92 3468 
11.185 1.849 1.683 194 154 94 3386 
11.184 1.85 1.679 194 154 94 3431 
11.184 1.85 1.675 194 154 94 3318 
11.184 1.85 1.671 194 154 94 3355 
11.186 1.849 1.667 193 155 96 3320 
11.185 1.849 1.664 193 155 96 3290 
11.186 1.849 1.659 193 154 96 3309 
11.184 1.85 1.656 193 154 96 3386 
11.186 1.849 1.652 192 154 96 3354 
11.184 1.85 1.649 192 154 96 3364 
11.183 1.851 1.645 191 154 96 3197 
11.183 1.851 1.642 191 154 96 3165 
11.182 1.851 1.638 191 154 96 3167 
11.185 1.849 1.633 192 154 97 3384 
11.183 1.851 1.63 192 156 98 3404 
11.188 1.848 1.625 194 157 100 3425 
11.185 1.849 1.623 194 156 99 3354 
11.188 1.848 1.618 194 158 100 3461 
11.185 1.849 1.615 194 156 99 3407 
11.185 1.849 1.611 193 156 100 3402 
11.188 1.848 1.607 192 156 100 3414 
11.186 1.849 1.603 192 156 100 3373 
11.188 1.848 1.599 192 155 100 3443 
11.186 1.849 1.596 192 156 100 3390 
11.187 1.849 1.592 191 155 100 3375 
11.185 1.85 1.589 190 154 98 3334 
11.187 1.849 1.585 192 156 100 3415 
11.184 1.851 1.581 192 156 101 3416 
11.184 1.85 1.577 192 156 101 3450 
11.187 1.849 1.573 192 156 102 3468 
11.186 1.849 1.57 192 156 102 3441 
11.187 1.849 1.566 193 158 104 3329 
11.185 1.85 1.562 193 158 102 3446 
11.186 1.849 1.558 194 159 103 3395 
11.186 1.849 1.555 194 160 104 3368 
11.186 1.849 1.551 195 161 106 3402 
11.186 1.849 1.547 196 162 108 3377 
11.187 1.849 1.543 196 160 108 3291 
11.188 1.848 1.54 194 160 108 3409 
11.186 1.849 1.536 194 158 107 3400 
11.188 1.848 1.532 193 158 106 3400 
11.184 1.851 1.529 193 158 106 3427 
11.186 1.849 1.525 192 157 105 3473 
11.184 1.851 1.522 192 158 104 3350 
11.187 1.849 1.518 194 160 107 3445 
11.185 1.85 1.514 194 160 108 3422 
11.184 1.851 1.51 194 160 108 3314 
11.188 1.848 1.506 194 159 108 3434 
11.188 1.848 1.502 192 157 107 3368 
11.185 1.85 1.499 193 158 108 3409 
11.187 1.849 1.495 194 158 108 3368 
11.186 1.85 1.492 196 160 110 3359 
11.187 1.849 1.488 196 162 110 3452 
11.187 1.849 1.484 198 162 110 3388 
11.189 1.848 1.48 198 162 111 3425 
11.187 1.85 1.476 198 163 112 3341 
11.186 1.85 1.473 197 162 111 3379 
11.185 1.851 1.47 197 163 112 3375 
11.186 1.85 1.466 196 162 112 3386 
11.189 1.848 1.461 196 162 112 3407 
11.186 1.85 1.458 196 162 113 3350 
11.188 1.849 1.454 196 162 113 3388 
11.187 1.85 1.45 196 162 112 3302 
11.186 1.85 1.447 198 164 113 3321 
11.184 1.851 1.444 197 163 112 3302 
11.185 1.851 1.44 197 163 112 3338 
11.185 1.851 1.436 196 164 112 3280 
11.186 1.85 1.432 196 163 112 3298 
11.187 1.85 1.428 196 164 115 3343 
11.186 1.851 1.425 196 164 116 3288 
11.186 1.85 1.421 196 164 114 3343 
11.184 1.851 1.418 196 164 114 3314 
11.185 1.851 1.414 198 164 116 3391 
11.183 1.852 1.411 198 164 116 3354 
11.186 1.851 1.406 198 164 116 3438 
11.187 1.85 1.403 197 165 116 3472 
11.184 1.851 1.399 198 166 116 3455 
11.186 1.851 1.395 198 166 116 3350 
11.186 1.851 1.391 198 166 117 3420 
11.185 1.851 1.388 198 166 116 3429 
11.185 1.851 1.385 196 164 114 3441 
11.185 1.851 1.381 197 165 115 3418 
11.183 1.852 1.377 196 164 114 3470 
11.183 1.852 1.373 195 163 113 3343 
11.184 1.852 1.37 196 164 114 3377 
11.186 1.851 1.366 198 166 116 3446 
11.186 1.851 1.362 198 166 116 3440 
11.184 1.852 1.359 198 166 117 3377 
11.186 1.851 1.355 197 165 116 3468 
11.184 1.852 1.351 197 165 116 3447 
11.187 1.85 1.347 197 165 116 3438 
11.18 1.854 1.345 198 166 117 3370 
11.184 1.852 1.34 198 166 118 3479 
11.185 1.851 1.336 199 167 118 3398 
11.183 1.853 1.333 198 166 118 3409 
11.185 1.851 1.329 198 166 118 3366 
11.183 1.852 1.326 198 166 117 3423 
11.183 1.853 1.322 198 166 117 3373 
11.181 1.854 1.319 198 166 118 3375 
11.185 1.851 1.314 199 167 118 3447 
11.181 1.854 1.311 198 168 119 3395 
11.185 1.851 1.307 198 168 119 3393 
11.185 1.852 1.303 198 168 119 3411 
11.185 1.851 1.3 198 168 120 3354 
11.186 1.851 1.296 198 168 120 3390 
11.181 1.854 1.293 198 168 120 3361 
11.185 1.851 1.288 198 168 120 3500 
11.185 1.852 1.285 199 169 121 3477 
11.182 1.853 1.278 198 168 119 3413 
11.185 1.852 1.274 199 168 120 3420 
11.185 1.852 1.27 200 170 120 3386 
11.186 1.851 1.266 200 170 120 3434 
11.185 1.851 1.263 199 169 120 3338 
11.186 1.852 1.259 198 168 122 3386 
11.183 1.853 1.256 199 169 122 3397 
11.183 1.853 1.252 200 168 122 3313 
11.182 1.854 1.248 200 170 122 3322 
11.183 1.853 1.245 200 170 122 3275 
11.184 1.853 1.241 200 170 122 3196 
11.187 1.851 1.237 200 170 122 3321 
11.184 1.853 1.234 200 171 124 3297 
11.187 1.851 1.229 200 171 124 3375 
11.183 1.853 1.226 201 170 125 3313 
11.185 1.852 1.222 201 171 126 3241 
11.185 1.852 1.219 201 171 126 3256 
11.18 1.855 1.216 200 170 126 3209 
11.183 1.853 1.212 199 169 124 3046 
11.181 1.855 1.208 199 169 124 3084 
11.182 1.854 1.205 198 168 124 3104 
11.176 1.858 1.202 198 169 124 3148 
11.185 1.844 1.753 194 151 84 3334 
11.185 1.844 1.75 194 150 85 3411 
11.183 1.845 1.746 194 152 86 3393 
11.186 1.843 1.742 194 152 86 3397 
11.186 1.843 1.738 195 152 88 3452 
11.184 1.845 1.735 194 152 86 3416 
11.185 1.844 1.731 194 152 86 3440 
11.184 1.844 1.727 194 152 86 3413 
11.187 1.843 1.723 194 152 86 3434 
11.187 1.843 1.719 194 154 87 3439 
11.185 1.844 1.716 194 154 87 3372 
11.183 1.845 1.712 194 153 89 3425 
11.185 1.844 1.708 194 153 89 3425 
11.181 1.847 1.706 195 154 90 3436 
11.186 1.844 1.7 194 154 91 3350 
11.187 1.843 1.696 194 154 91 3411 
11.185 1.844 1.693 194 154 91 3432 
11.184 1.844 1.69 194 154 93 3363 
11.181 1.847 1.687 195 155 94 3359 
11.181 1.847 1.683 196 156 96 3304 
11.181 1.847 1.679 194 156 96 3289 
11.179 1.848 1.676 194 156 96 3186 
11.183 1.846 1.671 194 156 96 3268 
11.182 1.846 1.667 194 156 98 3209 
11.184 1.845 1.663 194 155 97 3238 
11.183 1.846 1.66 194 155 97 3236 
11.186 1.844 1.655 194 156 98 3386 
11.184 1.845 1.652 192 154 98 3359 
11.186 1.844 1.648 191 154 96 3286 
11.181 1.847 1.645 192 154 97 3086 
11.18 1.848 1.642 190 155 98 3038 
11.182 1.846 1.637 192 157 100 3063 
11.184 1.845 1.633 192 157 100 3181 
11.185 1.845 1.629 192 157 100 3406 
11.182 1.846 1.626 193 158 100 3382 
11.185 1.845 1.622 193 158 100 3395 
11.184 1.845 1.618 192 157 100 3468 
11.184 1.846 1.615 193 158 102 3446 
11.182 1.847 1.611 194 158 102 3377 
11.184 1.845 1.607 194 157 102 3450 
11.183 1.846 1.603 192 156 101 3356 
11.184 1.846 1.599 192 156 100 3452 
11.186 1.844 1.595 191 155 100 3386 
11.183 1.846 1.593 190 154 98 3398 
11.186 1.844 1.588 189 154 98 3384 
11.183 1.846 1.585 190 154 99 3361 
11.185 1.845 1.581 191 155 100 3409 
11.186 1.844 1.577 192 156 102 3450 
11.185 1.845 1.573 191 155 100 3479 
11.186 1.844 1.569 192 156 101 3441 
11.183 1.846 1.566 191 156 102 3345 
11.186 1.844 1.562 194 160 104 3438 
11.183 1.846 1.558 194 159 103 3400 
11.184 1.846 1.555 194 159 104 3370 
11.183 1.846 1.551 193 158 103 3364 
11.183 1.847 1.548 194 159 104 3354 
11.183 1.846 1.544 193 158 105 3231 
11.182 1.847 1.54 193 158 106 3363 
11.186 1.845 1.536 192 157 106 3396 
11.185 1.845 1.532 192 156 105 3423 
11.185 1.846 1.528 192 158 105 3359 
11.181 1.847 1.526 192 158 105 3413 
11.187 1.844 1.52 192 158 106 3377 
11.185 1.845 1.517 194 159 108 3395 
11.183 1.847 1.514 194 160 108 3413 
11.188 1.844 1.509 192 158 106 3247 
11.186 1.845 1.506 190 156 104 3414 
11.186 1.845 1.502 189 154 102 3345 
11.184 1.846 1.499 190 156 104 3409 
11.185 1.846 1.495 192 157 106 3357 
11.184 1.846 1.492 196 160 110 3381 
11.182 1.847 1.488 198 163 112 3372 
11.183 1.847 1.484 198 164 112 3345 
11.184 1.846 1.48 198 164 112 3421 
11.187 1.845 1.476 198 164 112 3348 
11.182 1.847 1.474 197 163 112 3390 
11.184 1.846 1.469 196 162 112 3382 
11.181 1.848 1.466 196 162 112 3370 
11.186 1.845 1.461 196 162 112 3447 
11.188 1.844 1.457 194 160 111 3432 
11.184 1.846 1.454 194 160 110 3411 
11.186 1.845 1.45 194 161 110 3346 
11.187 1.845 1.446 196 162 111 3302 
11.186 1.845 1.443 196 162 111 3302 
11.186 1.845 1.439 196 162 112 3361 
11.187 1.845 1.435 197 163 112 3309 
11.184 1.847 1.432 197 163 112 3398 
11.185 1.846 1.428 196 164 115 3332 
11.184 1.846 1.425 196 164 116 3320 
11.183 1.847 1.421 196 164 116 3321 
11.184 1.846 1.417 196 164 116 3293 
11.184 1.846 1.414 196 164 116 3386 
11.183 1.847 1.41 197 165 116 3340 
11.177 1.851 1.408 198 166 117 3439 
11.186 1.845 1.402 198 166 116 3498 
11.181 1.848 1.4 198 166 117 3393 
11.185 1.846 1.395 198 166 117 3359 
11.186 1.845 1.391 198 166 117 3443 
11.184 1.847 1.388 198 166 117 3418 
11.185 1.846 1.384 198 166 117 3432 
11.184 1.847 1.381 199 167 118 3304 
11.185 1.846 1.377 200 168 118 3488 
11.183 1.847 1.373 198 166 116 3395 
11.184 1.847 1.369 198 166 116 3368 
11.182 1.848 1.366 198 166 116 3418 
11.182 1.848 1.362 198 166 116 3400 
11.183 1.847 1.359 198 166 118 3323 
11.183 1.847 1.355 199 167 118 3498 
11.184 1.847 1.351 200 168 119 3452 
11.18 1.849 1.348 199 167 118 3447 
11.184 1.847 1.343 200 168 119 3345 
11.179 1.85 1.341 200 168 120 3404 
11.184 1.847 1.336 200 168 119 3398 
11.184 1.847 1.333 200 168 120 3416 
11.182 1.848 1.329 200 168 120 3370 
11.184 1.847 1.325 200 168 119 3400 
11.182 1.848 1.322 200 167 117 3375 
11.184 1.847 1.318 198 166 116 3431 
11.182 1.848 1.315 198 166 116 3411 
11.183 1.847 1.31 198 166 118 3446 
11.183 1.848 1.307 197 166 118 3404 
11.184 1.847 1.303 198 167 118 3438 
11.183 1.847 1.3 197 167 119 3398 
11.182 1.848 1.296 197 167 119 3406 
11.182 1.849 1.292 199 169 121 3393 
11.18 1.85 1.289 200 170 122 3463 
11.184 1.847 1.281 200 170 122 3497 
11.183 1.848 1.278 200 170 122 3445 
11.184 1.848 1.274 200 170 122 3391 
11.181 1.849 1.27 200 171 122 3427 
11.186 1.846 1.266 200 170 122 3447 
11.187 1.845 1.262 199 170 122 3338 
11.184 1.847 1.259 200 170 122 3288 
11.183 1.848 1.256 200 170 122 3300 
11.18 1.85 1.252 200 170 122 3113 
11.181 1.849 1.248 200 170 122 3165 
11.18 1.85 1.245 200 171 122 3056 
11.183 1.848 1.241 199 170 122 3077 
11.181 1.849 1.238 200 170 124 3176 
11.183 1.848 1.234 200 170 125 3147 
11.179 1.85 1.23 200 170 124 3170 
11.181 1.849 1.226 199 169 125 3181 
11.182 1.849 1.223 200 170 126 3167 
11.181 1.85 1.219 199 168 124 3118 
11.18 1.85 1.216 198 168 124 3185 
11.178 1.851 1.212 198 167 122 3051 
11.178 1.851 1.208 195 166 121 3118 
11.175 1.853 1.206 194 166 122 3109 
11.175 1.853 1.202 194 168 123 3181 
11.185 1.838 1.75 196 154 88 3425 
11.186 1.837 1.746 196 154 88 3382 
11.185 1.837 1.743 196 154 88 3311 
11.184 1.838 1.74 196 154 88 3395 
11.183 1.839 1.736 196 154 89 3363 
11.184 1.838 1.732 196 154 89 3436 
11.185 1.837 1.724 196 154 88 3432 
11.188 1.836 1.72 195 154 88 3471 
11.184 1.838 1.717 195 154 88 3402 
11.187 1.836 1.712 196 154 89 3459 
11.182 1.839 1.71 196 154 90 3431 
11.187 1.836 1.705 196 154 90 3420 
11.183 1.839 1.702 196 154 92 3252 
11.183 1.839 1.698 196 154 92 3132 
11.183 1.839 1.694 195 156 92 3038 
11.181 1.84 1.692 194 154 92 3013 
11.18 1.84 1.688 194 156 96 3001 
11.179 1.842 1.685 195 155 98 3018 
11.179 1.841 1.681 196 156 100 3057 
11.175 1.844 1.678 194 157 100 3050 
11.179 1.841 1.673 195 158 102 3019 
11.178 1.842 1.669 194 160 104 3002 
11.18 1.841 1.665 194 158 102 3069 
11.179 1.842 1.662 196 158 102 3117 
11.177 1.843 1.659 197 157 100 3092 
11.177 1.843 1.655 196 158 102 3059 
11.175 1.844 1.651 193 157 102 3038 
11.176 1.843 1.647 190 156 100 3136 
11.179 1.842 1.643 190 157 101 3176 
11.184 1.839 1.638 192 158 104 3264 
11.184 1.839 1.634 194 160 106 3395 
11.181 1.841 1.631 194 158 105 3340 
11.183 1.839 1.627 192 157 104 3329 
11.182 1.84 1.624 193 158 104 3151 
11.18 1.841 1.621 192 157 102 3318 
11.183 1.84 1.616 193 158 104 3359 
11.181 1.841 1.613 194 159 104 3440 
11.186 1.838 1.608 193 158 104 3429 
11.183 1.839 1.605 193 158 104 3364 
11.184 1.839 1.601 194 158 104 3272 
11.184 1.838 1.597 193 158 104 3377 
11.182 1.84 1.59 192 156 102 3486 
11.184 1.839 1.586 193 156 103 3398 
11.185 1.839 1.582 192 158 104 3463 
11.187 1.838 1.578 194 159 105 3457 
11.185 1.839 1.574 194 160 106 3438 
11.185 1.838 1.571 194 159 105 3400 
11.185 1.838 1.567 194 159 105 3359 
11.184 1.839 1.563 195 160 105 3430 
11.184 1.839 1.56 195 160 106 3300 
11.182 1.841 1.556 194 160 104 3196 
11.181 1.842 1.553 194 159 105 3291 
11.182 1.841 1.549 194 159 105 3162 
11.181 1.841 1.545 194 160 106 3128 
11.178 1.843 1.542 194 159 106 3148 
11.176 1.844 1.539 193 159 108 3079 
11.177 1.844 1.535 193 159 108 3098 
11.177 1.844 1.532 192 158 106 3075 
11.178 1.843 1.528 192 159 108 3088 
11.183 1.84 1.523 192 159 109 3193 
11.183 1.84 1.519 194 161 112 3190 
11.185 1.838 1.514 194 162 113 3230 
11.187 1.838 1.51 194 162 112 3261 
11.185 1.839 1.504 190 156 108 3484 
11.184 1.839 1.5 189 155 106 3368 
11.183 1.84 1.496 189 155 104 3393 
11.182 1.841 1.493 188 154 104 3390 
11.185 1.839 1.488 196 161 110 3404 
11.184 1.839 1.485 196 162 110 3411 
11.185 1.839 1.481 196 162 111 3388 
11.182 1.841 1.478 196 162 110 3382 
11.187 1.838 1.473 196 162 110 3436 
11.182 1.841 1.471 196 162 110 3345 
11.19 1.836 1.465 195 162 110 3386 
11.184 1.84 1.463 194 161 110 3327 
11.186 1.839 1.459 194 160 110 3411 
11.188 1.837 1.454 193 159 110 3422 
11.186 1.839 1.452 193 159 110 3372 
11.187 1.838 1.447 194 160 110 3350 
11.186 1.838 1.444 194 160 110 3318 
11.186 1.839 1.44 194 160 110 3368 
11.184 1.839 1.437 195 161 110 3363 
11.186 1.839 1.433 195 161 110 3420 
11.185 1.84 1.429 194 160 110 3375 
11.187 1.838 1.425 194 160 110 3400 
11.186 1.839 1.422 195 161 110 3373 
11.186 1.839 1.418 194 160 111 3375 
11.184 1.84 1.411 198 164 116 3452 
11.186 1.839 1.407 198 165 118 3413 
11.184 1.84 1.404 198 166 116 3464 
11.183 1.841 1.4 198 166 117 3384 
11.187 1.839 1.396 198 166 116 3440 
11.184 1.84 1.393 200 167 120 3446 
11.185 1.84 1.389 198 166 118 3434 
11.184 1.84 1.385 198 166 118 3386 
11.184 1.84 1.382 199 167 118 3415 
11.182 1.841 1.378 198 166 118 3448 
11.184 1.841 1.374 198 166 117 3472 
11.182 1.841 1.371 199 167 118 3334 
11.184 1.841 1.367 199 167 118 3411 
11.182 1.842 1.364 199 167 118 3393 
11.183 1.841 1.36 199 167 118 3430 
11.184 1.84 1.356 200 168 119 3375 
11.18 1.843 1.353 200 168 119 3440 
11.183 1.841 1.349 200 168 120 3504 
11.181 1.842 1.345 201 169 120 3459 
11.183 1.841 1.341 201 169 120 3502 
11.181 1.842 1.338 202 169 120 3352 
11.182 1.842 1.334 200 168 119 3427 
11.183 1.841 1.33 200 168 118 3418 
11.183 1.841 1.326 200 166 116 3488 
11.182 1.842 1.323 200 168 116 3445 
11.183 1.841 1.319 200 166 115 3420 
11.182 1.842 1.316 198 165 114 3384 
11.184 1.841 1.312 196 164 114 3423 
11.182 1.842 1.308 196 164 114 3429 
11.183 1.842 1.305 195 163 114 3364 
11.18 1.843 1.301 195 164 115 3389 
11.182 1.842 1.297 196 164 116 3413 
11.179 1.844 1.294 196 166 118 3418 
11.182 1.842 1.286 200 170 122 3400 
11.185 1.84 1.282 200 170 124 3323 
11.183 1.842 1.279 200 170 124 3334 
11.182 1.842 1.275 200 170 125 3348 
11.184 1.841 1.271 201 170 124 3230 
11.184 1.841 1.267 200 170 124 3291 
11.182 1.842 1.264 200 170 124 3220 
11.178 1.844 1.261 200 170 124 3106 
11.179 1.844 1.258 200 170 124 3073 
11.176 1.846 1.254 198 169 123 3096 
11.177 1.845 1.25 198 168 124 2964 
11.184 1.841 1.246 196 167 125 3051 
11.183 1.842 1.242 194 168 124 3067 
11.175 1.847 1.24 194 168 126 3139 
11.171 1.849 1.237 192 168 126 3092 
11.178 1.845 1.232 192 167 126 3176 
11.18 1.844 1.228 192 167 126 3072 
11.178 1.845 1.224 193 168 127 3039 
11.176 1.846 1.222 194 166 124 3119 
11.172 1.848 1.218 194 166 126 3063 
11.175 1.847 1.214 194 166 127 3097 
11.173 1.848 1.211 194 167 128 3101 
11.175 1.846 1.207 192 166 128 3159 
11.175 1.847 1.203 190 166 128 3389 
11.188 1.823 1.752 177 134 69 3466 
11.186 1.825 1.749 174 132 65 3416 
11.187 1.824 1.744 179 137 70 3390 
11.187 1.824 1.741 186 144 79 3379 
11.186 1.825 1.737 194 152 86 3405 
11.185 1.825 1.734 195 154 91 3247 
11.181 1.828 1.731 194 154 91 3247 
11.186 1.825 1.726 196 156 94 3257 
11.18 1.828 1.724 196 155 94 3204 
11.184 1.826 1.719 196 156 94 3245 
11.18 1.828 1.716 195 156 92 3177 
11.181 1.828 1.712 194 155 92 3268 
11.181 1.828 1.708 195 157 96 3391 
11.184 1.826 1.704 196 158 100 3388 
11.184 1.826 1.7 194 158 102 3420 
11.185 1.825 1.696 195 158 104 3363 
11.186 1.825 1.692 191 153 98 3429 
11.185 1.825 1.688 187 148 93 3443 
11.185 1.826 1.685 172 131 76 3364 
11.186 1.825 1.681 166 125 70 3413 
11.185 1.826 1.677 157 116 61 3356 
11.186 1.825 1.673 148 106 51 3359 
11.184 1.826 1.67 150 106 53 3322 
11.187 1.824 1.665 145 103 54 3363 
11.187 1.825 1.662 136 95 58 3370 
11.184 1.826 1.659 134 94 55 3338 
11.185 1.826 1.655 134 96 54 3391 
11.184 1.826 1.651 138 102 61 3375 
11.183 1.827 1.648 151 115 74 3371 
11.183 1.827 1.644 152 115 74 3396 
11.186 1.825 1.639 150 110 68 3391 
11.183 1.827 1.637 137 96 52 3434 
11.186 1.825 1.632 140 101 55 3414 
11.185 1.826 1.629 158 122 69 3356 
11.185 1.826 1.625 163 127 73 3329 
11.186 1.825 1.621 175 139 84 3470 
11.185 1.826 1.617 182 146 90 3330 
11.188 1.824 1.613 183 147 92 3459 
11.183 1.827 1.611 190 156 102 3397 
11.188 1.824 1.605 191 156 103 3416 
11.186 1.825 1.602 192 158 104 3370 
11.186 1.826 1.599 194 160 108 3363 
11.185 1.826 1.595 192 158 109 3415 
11.185 1.826 1.591 194 160 110 3439 
11.178 1.83 1.589 194 162 112 3231 
11.177 1.831 1.586 195 163 114 3295 
11.176 1.831 1.582 196 164 112 3227 
11.177 1.831 1.579 197 165 111 3222 
11.177 1.831 1.575 198 164 112 3155 
11.164 1.839 1.574 196 163 110 3192 
11.167 1.838 1.57 196 165 111 3090 
11.166 1.838 1.566 196 164 110 3067 
11.171 1.835 1.561 197 162 110 3160 
11.175 1.832 1.556 196 162 114 3143 
11.17 1.836 1.554 194 161 114 3190 
11.177 1.831 1.548 192 158 111 3151 
11.174 1.833 1.545 184 150 102 3177 
11.178 1.83 1.54 169 138 94 3163 
11.174 1.833 1.538 169 138 97 3202 
11.177 1.831 1.534 168 136 96 3119 
11.175 1.833 1.53 162 131 94 3220 
11.177 1.831 1.526 166 138 96 3126 
11.176 1.832 1.522 168 140 97 3089 
11.176 1.832 1.519 168 140 97 3010 
11.179 1.83 1.514 177 148 106 3036 
11.175 1.833 1.512 179 152 109 2969 
11.173 1.834 1.508 176 146 102 3011 
11.18 1.83 1.503 182 150 105 3129 
11.182 1.828 1.499 188 156 109 3134 
11.181 1.829 1.496 192 160 113 3173 
11.179 1.83 1.492 195 162 112 3204 
11.186 1.826 1.487 198 164 113 3176 
11.182 1.829 1.484 197 163 112 3284 
11.186 1.826 1.479 196 164 114 3176 
11.185 1.827 1.476 197 164 114 3084 
11.183 1.828 1.473 196 164 114 3125 
11.184 1.827 1.469 196 164 114 3204 
11.186 1.826 1.464 196 164 114 3130 
11.185 1.827 1.461 195 164 114 3028 
11.186 1.826 1.457 195 164 114 3134 
11.188 1.825 1.453 195 163 113 3245 
11.185 1.827 1.45 196 164 114 3205 
11.19 1.824 1.445 196 164 114 3289 
11.185 1.827 1.442 196 164 116 3160 
11.184 1.828 1.439 196 164 114 3154 
11.182 1.829 1.436 196 164 114 3101 
11.184 1.828 1.432 196 164 116 3173 
11.182 1.829 1.429 196 164 115 3259 
11.183 1.828 1.425 196 164 114 3363 
11.181 1.829 1.421 196 164 113 3389 
11.179 1.831 1.418 195 162 112 3291 
11.18 1.83 1.414 196 164 114 3277 
11.179 1.831 1.411 196 164 114 3295 
11.186 1.827 1.405 193 162 111 3377 
11.182 1.829 1.403 188 156 107 3282 
11.185 1.827 1.398 188 158 108 3388 
11.185 1.827 1.395 191 160 110 3388 
11.185 1.827 1.391 193 162 114 3434 
11.184 1.828 1.387 196 165 116 3357 
11.184 1.828 1.383 198 166 118 3448 
11.186 1.827 1.379 198 167 120 3465 
11.183 1.829 1.377 198 166 119 3500 
11.186 1.827 1.372 198 167 120 3438 
11.187 1.826 1.368 199 168 121 3396 
11.188 1.825 1.364 198 166 120 3315 
11.186 1.827 1.361 198 167 120 3273 
11.185 1.827 1.357 200 168 120 3247 
11.184 1.828 1.354 203 172 124 3196 
11.182 1.83 1.351 201 169 119 3282 
11.185 1.827 1.347 200 168 118 3347 
11.183 1.829 1.343 200 167 116 3311 
11.181 1.83 1.34 200 168 116 3113 
11.18 1.831 1.337 200 168 114 3039 
11.18 1.831 1.333 198 166 112 3042 
11.184 1.828 1.329 198 164 111 3178 
11.184 1.828 1.325 196 164 111 3305 
11.186 1.827 1.321 196 164 112 3357 
11.183 1.829 1.318 198 164 112 3363 
11.184 1.828 1.314 195 164 113 3406 
11.186 1.827 1.31 194 162 114 3430 
11.187 1.827 1.306 194 162 114 3415 
11.186 1.827 1.302 193 163 116 3454 
11.184 1.828 1.299 194 164 118 3406 
11.187 1.827 1.295 195 164 119 3450 
11.184 1.829 1.292 194 164 118 3359 
11.187 1.827 1.287 194 166 121 3363 
11.186 1.827 1.284 194 166 122 3377 
11.186 1.827 1.28 196 170 128 3454 
11.186 1.827 1.277 197 170 128 3413 
11.184 1.828 1.273 196 170 126 3393 
11.185 1.828 1.269 196 170 126 3363 
11.187 1.827 1.265 194 170 127 3334 
11.183 1.829 1.263 190 170 128 3315 
11.18 1.831 1.26 185 166 126 3204 
11.18 1.831 1.256 178 156 118 3193 
11.178 1.833 1.252 166 141 106 3225 
11.178 1.832 1.249 156 130 94 3195 
11.179 1.832 1.245 144 118 84 3175 
11.177 1.833 1.242 140 114 81 3147 
11.182 1.83 1.237 134 108 75 3173 
11.177 1.833 1.234 136 110 76 3254 
11.184 1.828 1.229 138 112 76 3304 
11.182 1.83 1.226 123 94 63 3252 
11.185 1.828 1.222 131 104 71 3365 
11.183 1.83 1.218 136 108 74 3298 
11.183 1.829 1.215 134 108 74 3327 
11.185 1.828 1.211 129 102 70 3314 
11.185 1.828 1.207 126 98 68 3240 
11.186 1.828 1.203 122 94 66 3429 
11.183 1.829 1.2 119 92 66 3405 
11.185 1.825 1.749 175 134 66 3463 
11.181 1.828 1.747 179 137 70 3415 
11.182 1.827 1.742 186 144 79 3114 
11.184 1.825 1.738 194 152 86 3400 
11.183 1.826 1.734 195 154 91 3452 
11.185 1.825 1.73 194 154 91 3352 
11.184 1.826 1.727 196 155 94 3411 
11.186 1.825 1.722 196 155 94 3448 
11.182 1.827 1.72 196 156 94 3354 
11.184 1.826 1.716 195 156 92 3315 
11.177 1.83 1.714 194 155 92 2955 
11.164 1.838 1.714 195 157 96 2930 
11.165 1.837 1.71 196 158 98 3193 
11.177 1.83 1.702 194 158 102 3232 
11.185 1.825 1.696 196 158 104 3388 
11.183 1.827 1.694 191 153 98 3415 
11.181 1.828 1.686 175 135 80 3377 
11.185 1.825 1.681 166 125 70 3420 
11.181 1.828 1.679 157 116 61 3396 
11.179 1.829 1.675 151 109 54 3366 
11.183 1.827 1.671 150 106 53 3304 
11.184 1.826 1.667 150 108 55 3350 
11.183 1.827 1.663 136 96 54 3271 
11.181 1.828 1.66 134 94 55 3345 
11.182 1.827 1.656 134 96 54 3447 
11.181 1.828 1.653 140 101 60 3432 
11.181 1.828 1.649 144 108 68 3368 
11.182 1.827 1.645 152 115 74 3415 
11.179 1.829 1.642 150 110 68 3370 
11.184 1.826 1.637 137 96 52 3384 
11.181 1.828 1.634 138 98 56 3447 
11.184 1.826 1.629 150 113 62 3423 
11.181 1.828 1.627 163 127 73 3372 
11.184 1.826 1.618 182 146 90 3434 
11.183 1.827 1.615 183 147 92 3368 
11.182 1.828 1.611 187 152 98 3370 
11.179 1.829 1.608 191 156 103 3189 
11.179 1.83 1.605 192 158 104 3164 
11.178 1.83 1.601 196 160 108 3175 
11.181 1.829 1.597 192 158 109 3059 
11.175 1.832 1.594 194 160 110 3065 
11.173 1.833 1.591 194 162 112 3007 
11.173 1.833 1.587 195 163 114 3048 
11.172 1.834 1.584 196 164 114 3078 
11.175 1.832 1.579 194 162 108 3101 
11.175 1.832 1.575 198 164 112 3010 
11.176 1.831 1.572 196 163 110 2970 
11.169 1.836 1.569 198 166 112 3019 
11.17 1.836 1.565 196 164 110 3056 
11.166 1.837 1.563 197 162 110 3051 
11.169 1.836 1.558 197 162 112 3037 
11.172 1.834 1.554 194 161 114 3119 
11.169 1.836 1.551 192 158 111 3119 
11.171 1.835 1.547 189 154 107 3184 
11.167 1.838 1.544 178 146 98 2976 
11.171 1.835 1.539 169 138 97 3137 
11.17 1.835 1.536 168 138 100 3126 
11.171 1.835 1.532 162 131 94 3177 
11.171 1.835 1.528 165 136 94 3150 
11.174 1.833 1.524 168 140 97 3107 
11.179 1.83 1.519 168 140 97 2970 
11.181 1.829 1.514 175 148 106 2944 
11.185 1.826 1.51 179 152 109 3059 
11.184 1.827 1.506 173 144 101 3181 
11.188 1.825 1.502 180 150 105 3313 
11.184 1.827 1.499 188 156 109 3325 
11.186 1.826 1.494 192 160 113 3332 
11.185 1.827 1.492 195 163 114 3422 
11.186 1.826 1.488 197 163 112 3345 
11.186 1.826 1.484 197 163 112 3295 
11.186 1.826 1.48 196 164 114 3298 
11.188 1.825 1.476 197 164 114 3400 
11.184 1.827 1.473 196 164 114 3338 
11.186 1.826 1.469 196 164 114 3325 
11.183 1.828 1.466 196 164 114 3488 
11.186 1.826 1.461 195 164 114 3406 
11.186 1.826 1.458 195 164 114 3422 
11.185 1.827 1.454 195 163 113 3315 
11.187 1.825 1.45 196 164 114 3363 
11.186 1.826 1.446 196 164 116 3413 
11.192 1.823 1.442 196 164 116 3411 
11.186 1.826 1.439 196 164 114 3361 
11.187 1.826 1.435 196 164 114 3377 
11.184 1.828 1.432 196 164 115 3468 
11.186 1.826 1.428 196 164 115 3375 
11.188 1.825 1.424 196 164 114 3265 
11.184 1.828 1.421 196 164 113 3297 
11.186 1.826 1.417 195 162 112 3200 
11.182 1.829 1.414 196 164 114 3080 
11.179 1.831 1.411 196 164 114 3204 
11.181 1.83 1.407 194 162 112 3227 
11.182 1.829 1.403 190 158 109 3256 
11.183 1.829 1.399 188 158 108 3280 
11.183 1.829 1.395 191 160 110 3261 
11.182 1.829 1.392 193 162 114 3350 
11.18 1.83 1.389 196 165 116 3263 
11.179 1.831 1.385 197 166 118 3118 
11.175 1.833 1.382 198 167 120 3037 
11.18 1.83 1.377 198 166 119 3156 
11.181 1.83 1.374 198 167 120 3213 
11.179 1.831 1.371 199 168 121 3304 
11.18 1.83 1.367 198 166 120 3313 
11.182 1.829 1.362 198 167 120 3334 
11.183 1.829 1.359 200 168 120 3470 
11.184 1.828 1.355 202 170 122 3461 
11.181 1.83 1.352 201 169 119 3334 
11.181 1.83 1.348 200 168 118 3450 
11.181 1.83 1.344 200 168 118 3350 
11.181 1.83 1.341 200 168 116 3407 
11.181 1.83 1.337 200 167 114 3377 
11.182 1.829 1.333 198 166 112 3398 
11.181 1.83 1.33 198 165 112 3379 
11.181 1.83 1.326 196 164 111 3231 
11.18 1.83 1.322 197 166 114 3257 
11.178 1.832 1.319 198 166 114 3209 
11.178 1.832 1.315 195 164 113 3163 
11.176 1.833 1.312 195 164 113 3139 
11.176 1.833 1.308 194 162 114 3104 
11.176 1.833 1.305 193 163 116 3218 
11.181 1.83 1.3 194 164 116 3266 
11.183 1.829 1.296 195 164 119 3364 
11.18 1.831 1.293 194 164 118 3266 
11.179 1.831 1.29 194 166 121 3296 
11.181 1.83 1.286 194 166 121 3388 
11.18 1.831 1.282 196 168 127 3313 
11.18 1.831 1.278 197 170 128 3202 
11.175 1.834 1.276 196 170 126 3121 
11.174 1.834 1.272 196 168 125 3117 
11.179 1.832 1.268 194 170 127 3052 
11.178 1.832 1.264 192 170 128 3122 
11.18 1.831 1.26 188 168 126 3169 
11.18 1.831 1.256 178 156 118 3231 
11.177 1.833 1.253 166 141 106 3204 
11.18 1.831 1.249 154 128 92 3205 
11.177 1.833 1.246 145 118 84 3192 
11.179 1.832 1.242 140 114 81 3073 
11.178 1.832 1.238 134 108 75 3304 
11.182 1.83 1.234 136 110 76 3297 
11.181 1.831 1.23 138 112 76 3286 
11.183 1.829 1.226 114 86 55 3220 
11.179 1.832 1.224 131 104 71 3188 
11.18 1.831 1.22 136 108 74 3114 
11.18 1.831 1.216 134 108 74 3340 
11.179 1.832 1.212 132 105 72 3309 
11.18 1.831 1.208 126 101 68 3268 
11.182 1.83 1.205 122 94 66 3307 
11.18 1.831 1.201 119 92 66 3245 
11.187 1.811 1.752 194 152 89 3411 
11.182 1.814 1.749 194 154 89 3361 
11.187 1.811 1.744 195 152 88 3384 
11.186 1.811 1.74 198 156 91 3446 
11.185 1.812 1.737 197 154 90 3495 
11.187 1.811 1.733 180 140 72 3454 
11.185 1.812 1.73 179 138 70 3441 
11.188 1.811 1.725 186 146 78 3463 
11.187 1.811 1.721 190 148 85 3411 
11.188 1.81 1.717 188 146 83 3438 
11.184 1.813 1.714 191 150 91 3327 
11.186 1.811 1.71 179 136 76 3436 
11.183 1.813 1.707 180 131 78 3361 
11.184 1.813 1.704 162 114 62 3425 
11.186 1.812 1.699 144 96 44 3470 
11.186 1.812 1.695 130 90 38 3404 
11.186 1.812 1.692 144 108 55 3436 
11.185 1.813 1.688 166 131 79 3343 
11.187 1.811 1.684 186 155 100 3423 
11.184 1.813 1.681 188 154 97 3389 
11.185 1.813 1.677 194 160 101 3446 
11.188 1.811 1.673 196 160 101 3452 
11.185 1.813 1.669 196 160 102 3486 
11.188 1.811 1.665 195 160 102 3329 
11.187 1.812 1.661 192 157 100 3440 
11.188 1.811 1.657 190 157 102 3471 
11.185 1.813 1.654 188 156 102 3470 
11.187 1.812 1.65 190 157 100 3440 
11.185 1.812 1.647 188 156 100 3427 
11.185 1.812 1.643 191 156 101 3452 
11.187 1.812 1.639 188 156 98 3390 
11.184 1.813 1.636 191 158 98 3359 
11.188 1.811 1.631 193 160 102 3352 
11.184 1.814 1.629 197 160 106 3416 
11.187 1.812 1.624 197 160 105 3446 
11.185 1.812 1.621 198 160 104 3459 
