ply
format ascii 1.0
comment Author: CloudCompare (TELECOM PARISTECH/EDF R&D)
obj_info Generated by CloudCompare!
element vertex 1320
property float x
property float y
property float z
property uchar red
property uchar green
property uchar blue
property float scalar_Scalar_field
end_header
18.775 1.781 4.856 202 160 102 3005 
18.775 1.781 4.852 206 161 104 2934 
18.775 1.78 4.846 204 159 100 2889 
18.775 1.78 4.84 198 150 88 2923 
18.777 1.783 4.84 189 141 79 2968 
18.774 1.777 4.827 175 125 62 3017 
18.771 1.772 4.814 182 131 68 3040 
18.77 1.769 4.805 177 126 63 3065 
18.769 1.768 4.799 173 122 59 3162 
18.769 1.768 4.795 191 141 78 3104 
18.77 1.77 4.792 200 152 88 3067 
18.77 1.77 4.787 210 165 100 3126 
18.77 1.77 4.782 224 178 116 3146 
18.771 1.77 4.777 223 177 117 3198 
18.771 1.771 4.774 225 179 117 3059 
18.772 1.772 4.769 224 179 114 3040 
18.771 1.769 4.762 222 174 108 3051 
18.77 1.767 4.754 218 171 103 3023 
18.77 1.767 4.749 217 170 100 3076 
18.77 1.768 4.746 217 170 100 2942 
18.77 1.767 4.739 216 169 99 3044 
18.771 1.769 4.737 213 164 95 2940 
18.77 1.767 4.73 213 164 95 2952 
18.77 1.767 4.724 214 165 96 3077 
18.77 1.767 4.72 214 165 96 3123 
18.771 1.769 4.717 213 164 95 3164 
18.772 1.769 4.713 212 163 94 3097 
18.771 1.767 4.706 213 164 95 3044 
18.771 1.767 4.7 213 164 95 3052 
18.771 1.768 4.697 214 164 95 3069 
18.773 1.77 4.695 215 165 96 3062 
18.772 1.768 4.687 212 162 93 3057 
18.772 1.768 4.683 212 163 94 3067 
18.77 1.766 4.675 213 164 95 3001 
18.771 1.767 4.671 214 164 95 3146 
18.772 1.768 4.669 213 163 94 3163 
18.772 1.768 4.663 212 162 93 3181 
18.773 1.769 4.66 215 165 96 3107 
18.772 1.767 4.652 214 165 96 3094 
18.772 1.767 4.649 214 165 96 3081 
18.773 1.768 4.645 216 167 98 2960 
18.773 1.768 4.639 217 168 101 3088 
18.773 1.769 4.636 216 166 97 3080 
18.774 1.77 4.633 213 163 94 3089 
18.774 1.77 4.628 213 163 94 3111 
18.774 1.77 4.624 214 164 95 3060 
18.775 1.771 4.62 213 163 94 3059 
18.775 1.771 4.616 211 161 90 3084 
18.775 1.771 4.61 211 161 90 3131 
18.774 1.769 4.603 210 160 89 3063 
18.774 1.77 4.599 208 158 89 3065 
18.774 1.77 4.595 208 158 89 3062 
18.774 1.769 4.589 205 155 86 3050 
18.775 1.77 4.585 209 158 92 3055 
18.775 1.77 4.581 207 156 90 3013 
18.774 1.769 4.575 206 155 89 3103 
18.774 1.768 4.57 204 153 87 3157 
18.773 1.767 4.562 205 154 88 3003 
18.774 1.768 4.56 203 152 86 2944 
18.774 1.767 4.554 200 149 83 3048 
18.773 1.765 4.547 199 150 84 3040 
18.775 1.768 4.546 201 152 86 3042 
18.773 1.766 4.538 203 154 88 2997 
18.774 1.766 4.535 206 157 91 3000 
18.773 1.765 4.528 209 160 94 3069 
18.773 1.764 4.522 212 163 97 3019 
18.772 1.762 4.515 211 160 95 3000 
18.772 1.763 4.512 210 161 95 2990 
18.772 1.762 4.506 210 161 95 3000 
18.773 1.763 4.503 210 161 95 3119 
18.773 1.763 4.498 211 162 95 2972 
18.773 1.762 4.493 211 162 95 3037 
18.772 1.762 4.487 212 163 96 3026 
18.771 1.759 4.479 213 164 97 3031 
18.772 1.761 4.478 211 162 96 3080 
18.771 1.759 4.471 212 163 96 3062 
18.772 1.76 4.467 216 166 97 3096 
18.774 1.764 4.468 215 165 96 3060 
18.776 1.767 4.466 217 166 100 3018 
18.778 1.771 4.468 214 163 97 3051 
18.776 1.768 4.459 217 168 101 3093 
18.777 1.77 4.457 216 167 100 2995 
18.775 1.766 4.448 216 167 98 2981 
18.778 1.771 4.449 218 169 103 3004 
18.776 1.767 4.44 216 168 106 3046 
18.777 1.769 4.438 215 166 107 2922 
18.777 1.768 4.432 212 166 106 3005 
18.776 1.767 4.426 211 165 105 3055 
18.776 1.767 4.421 194 147 91 3003 
18.776 1.765 4.415 184 139 72 3052 
18.776 1.766 4.411 205 160 101 3017 
18.775 1.764 4.405 207 162 105 3054 
18.776 1.765 4.402 211 166 111 3026 
18.775 1.764 4.396 213 172 120 2982 
18.777 1.767 4.395 214 173 121 3017 
18.777 1.767 4.39 214 172 122 3050 
18.776 1.765 4.383 214 172 122 3062 
18.776 1.764 4.378 214 174 123 2968 
18.775 1.763 4.372 215 175 124 3047 
18.776 1.764 4.369 215 174 128 3045 
18.775 1.763 4.364 215 175 126 3063 
18.778 1.768 4.365 216 174 124 3131 
18.775 1.763 4.354 211 169 111 3075 
18.777 1.765 4.353 212 167 108 3093 
18.776 1.763 4.346 211 167 106 2929 
18.776 1.763 4.341 211 165 105 3053 
18.775 1.762 4.336 210 164 104 2965 
18.774 1.759 4.328 208 162 102 2984 
18.774 1.759 4.323 208 162 102 2976 
18.774 1.759 4.319 211 163 101 3035 
18.775 1.76 4.316 210 162 98 2987 
18.774 1.759 4.311 211 162 96 3017 
18.775 1.76 4.307 210 161 95 2901 
18.774 1.758 4.3 213 164 98 2931 
18.775 1.759 4.298 213 164 98 2962 
18.775 1.759 4.292 212 163 97 2979 
18.775 1.759 4.289 212 163 96 3012 
18.775 1.76 4.285 212 163 94 3087 
18.775 1.758 4.279 212 163 94 3106 
18.776 1.761 4.278 213 164 95 3044 
18.777 1.803 5.135 207 154 78 3085 
18.778 1.805 5.13 207 154 78 2989 
18.778 1.804 5.125 207 154 78 2943 
18.778 1.805 5.12 207 154 78 2911 
18.778 1.804 5.114 203 150 72 3009 
18.777 1.802 5.105 196 143 65 3001 
18.777 1.802 5.101 194 141 65 2977 
18.777 1.803 5.096 199 146 70 3035 
18.777 1.801 5.089 199 143 68 2936 
18.776 1.8 5.081 203 147 72 3001 
18.777 1.8 5.077 202 149 73 3038 
18.777 1.801 5.072 203 149 75 3156 
18.777 1.799 5.065 203 151 78 2986 
18.776 1.798 5.058 208 156 83 2915 
18.776 1.797 5.052 207 155 80 2907 
18.776 1.798 5.047 204 150 76 2884 
18.774 1.795 5.037 202 149 73 2847 
18.776 1.798 5.036 204 148 71 3002 
18.775 1.797 5.029 206 150 73 2838 
18.775 1.795 5.023 206 149 72 2912 
18.776 1.797 5.019 205 148 71 2944 
18.775 1.795 5.012 205 149 74 2976 
18.775 1.795 5.006 206 152 78 3003 
18.776 1.796 5.003 206 153 77 3067 
18.776 1.795 4.997 204 152 77 3054 
18.776 1.796 4.992 201 152 76 2976 
18.777 1.796 4.988 198 148 77 2986 
18.776 1.795 4.981 196 146 77 2932 
18.776 1.795 4.976 194 143 77 2969 
18.775 1.794 4.969 191 140 75 2812 
18.775 1.794 4.963 193 143 80 3002 
18.775 1.793 4.957 203 155 93 2926 
18.775 1.793 4.952 209 161 99 2918 
18.775 1.793 4.947 208 160 98 2930 
18.775 1.792 4.94 198 152 90 2886 
18.773 1.788 4.931 193 145 81 2894 
18.774 1.79 4.927 196 148 84 3030 
18.773 1.788 4.92 198 150 86 2931 
18.774 1.79 4.917 196 148 84 2928 
18.774 1.789 4.911 201 152 86 2923 
18.774 1.788 4.905 205 156 89 2884 
18.773 1.787 4.898 209 160 93 2910 
18.772 1.786 4.891 206 155 89 2932 
18.773 1.787 4.887 202 149 81 2975 
18.774 1.787 4.883 202 149 83 3035 
18.774 1.787 4.878 177 127 66 3076 
18.775 1.79 4.877 176 128 66 3115 
18.776 1.793 4.876 170 122 60 3021 
18.776 1.791 4.868 177 129 67 3028 
18.777 1.792 4.865 193 144 85 3025 
18.776 1.791 4.859 215 166 108 2952 
18.777 1.793 4.856 215 168 112 3001 
18.776 1.79 4.847 208 163 104 2970 
18.776 1.789 4.841 201 157 96 3034 
18.774 1.785 4.831 207 163 100 2982 
18.768 1.775 4.812 204 156 94 3105 
18.769 1.776 4.809 179 129 68 3200 
18.771 1.779 4.808 187 138 79 3061 
18.77 1.776 4.799 187 139 77 3076 
18.77 1.777 4.795 189 143 81 3088 
18.77 1.776 4.789 206 162 99 3077 
18.77 1.778 4.786 217 173 112 3106 
18.771 1.779 4.783 220 176 115 3059 
18.771 1.778 4.776 220 176 113 3129 
18.771 1.777 4.77 219 175 110 3160 
18.772 1.779 4.768 218 174 109 3057 
18.771 1.777 4.761 219 173 111 3019 
18.771 1.778 4.757 218 173 108 3038 
18.77 1.776 4.75 216 171 103 2954 
18.771 1.776 4.745 216 169 101 3059 
18.771 1.777 4.741 216 169 101 3071 
18.771 1.776 4.735 216 169 101 3028 
18.77 1.775 4.728 216 169 101 2959 
18.769 1.773 4.721 214 167 99 3012 
18.771 1.775 4.719 214 167 99 2984 
18.771 1.775 4.715 215 168 100 3084 
18.771 1.775 4.709 216 167 100 3161 
18.771 1.776 4.705 215 166 99 3053 
18.772 1.777 4.702 216 167 100 3146 
18.772 1.777 4.697 216 167 100 3146 
18.771 1.775 4.689 216 167 100 3075 
18.772 1.776 4.687 215 168 100 3042 
18.771 1.776 4.681 217 166 100 3010 
18.771 1.775 4.676 217 166 100 2951 
18.773 1.777 4.673 215 166 97 3053 
18.773 1.777 4.669 215 166 97 3032 
18.773 1.778 4.665 216 167 98 3078 
18.774 1.778 4.661 216 167 100 3087 
18.774 1.78 4.658 217 170 102 3060 
18.774 1.779 4.653 219 171 105 3053 
18.773 1.776 4.644 218 167 101 3148 
18.773 1.777 4.64 217 167 98 3151 
18.773 1.777 4.635 215 165 96 3086 
18.773 1.776 4.629 214 164 93 3142 
18.776 1.782 4.632 213 163 92 3043 
18.775 1.779 4.625 213 163 92 3044 
18.774 1.778 4.617 212 162 91 2909 
18.774 1.777 4.612 211 163 91 2944 
18.775 1.779 4.61 209 162 94 3012 
18.776 1.78 4.607 209 162 94 3004 
18.776 1.78 4.602 217 169 103 3004 
18.776 1.78 4.597 209 160 94 3003 
18.776 1.781 4.594 208 159 93 3004 
18.776 1.781 4.588 207 158 92 2986 
18.776 1.779 4.582 206 157 90 3006 
18.776 1.779 4.578 205 156 89 2893 
18.774 1.776 4.569 207 158 92 2826 
18.775 1.778 4.566 207 158 92 2869 
18.776 1.778 4.562 204 156 90 2873 
18.774 1.775 4.553 204 156 92 2834 
18.776 1.778 4.553 204 156 92 2917 
18.774 1.775 4.544 205 157 93 2913 
18.774 1.774 4.538 206 156 93 3046 
18.772 1.771 4.529 205 156 90 3001 
18.773 1.772 4.526 211 160 95 2912 
18.772 1.771 4.521 209 160 94 2987 
18.773 1.773 4.518 210 161 95 3042 
18.774 1.773 4.513 211 162 96 3064 
18.773 1.771 4.507 211 162 95 2939 
18.774 1.773 4.505 211 162 95 3112 
18.774 1.774 4.501 211 162 95 3051 
18.775 1.775 4.497 210 161 94 3062 
18.774 1.772 4.49 213 164 98 3126 
18.773 1.772 4.485 210 160 97 3013 
18.775 1.775 4.484 213 163 102 2851 
18.774 1.772 4.476 211 162 95 2980 
18.777 1.778 4.479 215 166 99 3196 
18.775 1.775 4.471 216 169 101 3086 
18.777 1.777 4.468 216 169 101 3027 
18.778 1.779 4.466 214 169 101 2987 
18.777 1.778 4.46 213 164 97 2960 
18.776 1.776 4.454 216 166 103 3006 
18.778 1.779 4.453 211 162 103 2997 
18.777 1.776 4.445 206 159 103 2993 
18.776 1.775 4.439 203 158 103 3084 
18.778 1.778 4.438 207 161 109 3002 
18.776 1.775 4.43 204 161 110 3050 
18.777 1.777 4.428 206 161 106 3012 
18.776 1.774 4.42 208 165 114 2981 
18.777 1.776 4.418 210 167 124 2992 
18.777 1.776 4.413 210 169 125 2994 
18.776 1.773 4.405 213 172 128 3059 
18.776 1.774 4.402 217 176 132 3038 
18.775 1.772 4.395 214 175 132 3002 
18.777 1.775 4.394 213 176 132 2985 
18.776 1.772 4.385 215 178 134 3031 
18.776 1.772 4.382 215 178 134 3043 
18.775 1.771 4.375 213 175 130 2972 
18.777 1.773 4.374 211 173 126 3052 
18.776 1.772 4.369 212 174 129 3064 
18.775 1.77 4.362 213 175 130 3200 
18.776 1.772 4.359 212 174 127 3057 
18.776 1.771 4.354 209 168 122 2935 
18.777 1.774 4.353 207 167 118 3114 
18.776 1.771 4.346 212 172 123 3003 
18.776 1.771 4.341 214 172 122 2995 
18.776 1.771 4.336 215 174 122 3027 
18.778 1.774 4.336 210 167 114 3004 
18.776 1.771 4.327 208 163 108 3026 
18.775 1.769 4.321 210 162 98 3070 
18.774 1.766 4.313 208 160 94 3025 
18.775 1.768 4.311 207 159 93 3068 
18.775 1.768 4.306 208 160 94 3042 
18.774 1.765 4.298 208 160 94 2980 
18.776 1.769 4.299 210 161 94 2989 
18.774 1.766 4.292 209 160 93 3001 
18.776 1.768 4.29 209 160 91 2973 
18.775 1.766 4.282 210 161 92 2953 
18.775 1.768 4.28 210 161 92 3064 
18.776 1.768 4.276 211 162 93 3051 
18.778 1.814 5.133 203 150 72 2968 
18.778 1.815 5.129 203 150 72 3059 
18.779 1.815 5.123 203 147 70 3056 
18.777 1.81 5.112 200 144 67 3004 
18.777 1.811 5.109 200 147 71 2996 
18.778 1.812 5.104 205 149 74 2981 
18.777 1.81 5.096 208 152 77 2894 
18.777 1.809 5.09 207 151 76 2992 
18.776 1.808 5.082 205 151 77 3087 
18.777 1.81 5.08 203 151 78 3126 
18.776 1.808 5.072 204 151 81 3015 
18.777 1.809 5.067 208 155 85 2971 
18.776 1.807 5.059 206 154 81 2975 
18.775 1.806 5.053 204 152 77 2959 
18.775 1.805 5.047 203 150 74 2990 
18.776 1.807 5.044 201 148 72 3046 
18.776 1.806 5.038 202 146 69 3043 
18.775 1.805 5.031 201 145 68 3025 
18.775 1.804 5.025 203 146 69 2984 
18.775 1.804 5.019 201 145 68 3005 
18.775 1.804 5.014 202 149 73 2931 
18.775 1.802 5.007 203 151 75 2905 
18.776 1.804 5.004 205 153 77 3031 
18.776 1.805 5 203 151 75 2955 
18.775 1.803 4.992 203 151 75 2970 
18.776 1.804 4.989 202 150 74 3001 
18.775 1.803 4.981 199 147 74 2970 
18.776 1.805 4.979 199 147 74 3027 
18.775 1.802 4.97 200 147 77 2997 
18.776 1.803 4.966 198 145 77 2919 
18.775 1.802 4.96 202 152 83 2962 
18.775 1.801 4.952 203 153 82 2963 
18.775 1.801 4.948 201 152 85 2939 
18.776 1.802 4.944 201 151 82 2914 
18.774 1.799 4.935 199 149 78 2818 
18.775 1.799 4.93 198 148 77 2952 
18.775 1.799 4.925 199 149 78 2985 
18.774 1.797 4.917 201 151 80 2950 
18.774 1.798 4.913 202 152 81 2964 
18.774 1.798 4.908 205 155 84 3013 
18.774 1.798 4.903 205 155 84 2992 
18.775 1.799 4.899 205 155 84 3056 
18.775 1.798 4.894 211 158 90 3044 
18.774 1.797 4.887 213 160 94 3073 
18.774 1.797 4.882 208 157 91 3104 
18.775 1.798 4.879 206 156 87 3129 
18.775 1.798 4.874 192 141 76 3064 
18.775 1.798 4.869 178 127 64 3002 
18.775 1.797 4.862 174 124 65 3148 
18.775 1.798 4.858 173 127 68 2989 
18.775 1.797 4.852 194 152 92 3080 
18.775 1.797 4.846 205 163 103 3042 
18.775 1.797 4.842 208 163 106 3186 
18.773 1.793 4.83 207 162 105 3061 
18.77 1.787 4.817 209 162 106 3082 
18.768 1.782 4.806 209 164 105 3032 
18.769 1.784 4.804 211 165 105 3055 
18.769 1.784 4.799 208 162 102 3071 
18.77 1.785 4.796 209 165 104 3067 
18.77 1.785 4.791 213 169 108 3069 
18.769 1.784 4.785 216 172 109 3104 
18.769 1.784 4.779 217 173 110 3056 
18.769 1.784 4.774 218 174 109 3050 
18.771 1.786 4.773 220 175 108 3062 
18.77 1.784 4.766 219 173 111 3110 
18.771 1.786 4.763 219 174 109 3027 
18.771 1.785 4.756 217 172 107 3127 
18.771 1.787 4.754 217 172 105 3079 
18.773 1.788 4.751 215 170 103 3001 
18.773 1.788 4.747 214 169 102 2967 
18.774 1.792 4.746 216 171 104 3001 
18.774 1.79 4.739 215 170 105 3067 
18.774 1.791 4.734 215 169 107 3000 
18.774 1.791 4.73 216 171 106 3000 
18.775 1.794 4.729 216 168 104 3114 
18.776 1.793 4.724 217 169 103 3001 
18.777 1.796 4.722 217 169 103 2943 
18.775 1.791 4.711 216 169 101 3134 
18.774 1.79 4.705 216 171 103 3035 
18.773 1.787 4.697 218 170 104 2953 
18.774 1.788 4.693 220 172 110 2956 
18.776 1.792 4.693 219 173 113 2942 
18.776 1.793 4.689 216 170 108 3109 
18.776 1.793 4.684 215 170 103 3076 
18.775 1.791 4.677 215 168 98 3026 
18.774 1.789 4.67 216 168 102 2985 
18.776 1.793 4.67 219 169 108 3036 
18.775 1.79 4.662 220 171 105 3157 
18.775 1.789 4.656 219 170 103 3077 
18.772 1.783 4.644 217 168 99 2988 
18.772 1.783 4.639 214 165 96 3051 
18.776 1.792 4.644 213 165 93 3040 
18.777 1.793 4.641 214 166 94 3036 
18.777 1.792 4.636 214 165 96 2998 
18.776 1.791 4.63 215 166 97 3002 
18.776 1.791 4.625 215 167 101 3013 
18.775 1.788 4.617 207 162 97 3006 
18.776 1.789 4.613 185 139 77 3002 
18.775 1.788 4.607 192 146 86 2935 
18.776 1.789 4.604 213 164 105 2939 
18.776 1.79 4.6 213 165 103 3021 
18.776 1.789 4.595 210 162 100 3018 
18.777 1.791 4.592 208 160 96 2968 
18.777 1.79 4.586 204 156 92 2805 
18.776 1.789 4.581 202 154 92 2856 
18.777 1.789 4.577 203 155 93 2927 
18.775 1.787 4.568 203 154 95 2862 
18.776 1.788 4.566 198 149 91 2914 
18.776 1.787 4.56 181 132 76 2901 
18.776 1.787 4.555 179 128 73 2900 
18.776 1.787 4.551 207 157 98 2925 
18.776 1.786 4.545 208 160 98 2942 
18.774 1.784 4.537 211 163 99 2951 
18.773 1.78 4.528 213 165 101 2998 
18.772 1.778 4.52 211 163 97 2918 
18.772 1.778 4.515 210 162 96 3036 
18.774 1.782 4.516 209 162 94 3076 
18.773 1.781 4.51 208 161 93 2976 
18.775 1.784 4.509 210 163 95 3029 
18.774 1.782 4.503 208 161 91 3055 
18.774 1.78 4.495 182 133 74 2968 
18.775 1.783 4.494 168 119 63 2951 
18.775 1.783 4.489 162 115 63 3012 
18.775 1.783 4.486 206 157 98 3043 
18.774 1.781 4.478 214 168 106 3017 
18.775 1.782 4.475 220 175 110 2995 
18.776 1.786 4.475 218 174 111 3064 
18.777 1.787 4.471 216 172 111 3090 
18.778 1.788 4.468 199 150 91 3080 
18.777 1.786 4.462 178 131 77 3059 
18.777 1.785 4.457 193 145 96 3023 
18.776 1.783 4.449 201 155 106 3117 
18.778 1.787 4.449 204 160 111 3039 
18.776 1.783 4.44 204 162 114 3072 
18.777 1.785 4.439 203 161 113 2976 
18.776 1.784 4.432 208 166 124 3072 
18.776 1.784 4.427 209 170 131 3064 
18.777 1.784 4.423 211 173 134 2973 
18.776 1.783 4.418 213 175 136 2994 
18.777 1.783 4.413 214 179 141 3047 
18.776 1.783 4.408 216 181 143 3026 
18.777 1.784 4.405 216 181 141 3046 
18.775 1.781 4.396 216 181 141 2942 
18.777 1.783 4.395 214 179 139 2914 
18.777 1.783 4.391 217 179 140 2938 
18.778 1.784 4.388 214 176 137 2936 
18.776 1.78 4.378 215 178 136 2997 
18.777 1.782 4.376 216 179 137 2967 
18.776 1.781 4.371 215 178 136 3046 
18.776 1.78 4.365 212 175 133 2956 
18.775 1.779 4.359 214 177 133 2921 
18.776 1.78 4.356 220 182 137 3078 
18.775 1.779 4.35 217 179 134 3007 
18.776 1.78 4.348 213 174 131 3031 
18.776 1.779 4.342 211 170 126 3044 
18.776 1.78 4.339 214 173 129 3039 
18.776 1.779 4.332 219 177 129 3010 
18.776 1.779 4.329 217 173 124 3000 
18.774 1.776 4.321 209 163 104 2956 
18.775 1.776 4.316 210 161 103 2915 
18.777 1.78 4.316 207 159 97 3040 
18.778 1.783 4.315 208 158 95 2926 
18.776 1.779 4.306 210 161 95 3031 
18.776 1.778 4.301 211 161 92 2948 
18.776 1.778 4.297 211 161 92 2953 
18.775 1.775 4.289 211 160 94 2931 
18.774 1.775 4.284 211 162 96 3044 
18.774 1.774 4.279 212 163 97 3012 
18.777 1.816 5.129 204 151 73 3059 
18.777 1.817 5.125 204 151 73 3023 
18.776 1.813 5.115 202 149 71 3006 
18.775 1.813 5.109 202 149 73 2957 
18.776 1.814 5.105 203 150 74 2989 
18.775 1.812 5.097 203 150 72 2931 
18.775 1.812 5.091 206 153 77 3009 
18.774 1.809 5.083 203 150 74 3052 
18.776 1.812 5.081 201 147 73 3161 
18.775 1.81 5.074 200 147 77 2987 
18.776 1.811 5.069 202 152 81 2964 
18.774 1.809 5.061 206 153 83 2910 
18.776 1.811 5.058 206 154 81 2970 
18.775 1.808 5.05 207 153 79 2976 
18.775 1.809 5.045 203 147 72 3009 
18.775 1.809 5.04 198 142 65 3017 
18.775 1.809 5.034 197 141 64 3006 
18.775 1.808 5.029 200 143 66 3005 
18.774 1.806 5.021 200 144 67 3030 
18.775 1.809 5.019 200 147 69 2925 
18.773 1.805 5.008 204 152 76 2882 
18.775 1.807 5.006 204 152 76 3062 
18.774 1.806 4.999 201 149 73 2950 
18.774 1.804 4.992 202 149 73 3015 
18.774 1.806 4.989 202 149 73 3023 
18.774 1.805 4.982 203 151 76 3011 
18.775 1.806 4.979 202 150 75 2992 
18.774 1.805 4.973 201 149 76 2970 
18.775 1.807 4.969 201 149 76 2918 
18.773 1.803 4.96 203 151 78 2964 
18.774 1.804 4.955 202 150 77 2944 
18.774 1.804 4.95 202 152 81 2961 
18.774 1.803 4.944 200 150 77 2900 
18.775 1.805 4.941 199 149 76 2863 
18.774 1.803 4.934 200 150 77 2977 
18.774 1.802 4.927 199 149 76 2930 
18.772 1.799 4.918 199 149 76 2953 
18.773 1.801 4.916 202 150 77 2967 
18.773 1.8 4.91 204 152 79 3046 
18.773 1.8 4.904 202 150 77 3003 
18.772 1.798 4.896 202 152 81 3070 
18.773 1.799 4.893 204 154 85 3085 
18.773 1.798 4.887 204 153 87 3056 
18.773 1.8 4.883 209 159 90 3065 
18.775 1.803 4.883 216 166 97 3159 
18.775 1.803 4.878 217 168 102 3072 
18.776 1.804 4.875 208 158 97 3042 
18.775 1.802 4.867 192 142 81 3150 
18.775 1.801 4.861 182 134 72 3037 
18.775 1.801 4.856 191 147 86 3148 
18.774 1.8 4.849 206 164 106 3069 
18.774 1.799 4.843 208 165 110 3132 
18.774 1.799 4.838 207 161 109 3020 
18.769 1.789 4.819 210 165 110 3077 
18.768 1.786 4.811 208 165 110 2997 
18.768 1.786 4.805 210 165 108 3081 
18.768 1.786 4.8 209 164 105 3093 
18.768 1.786 4.796 212 167 108 3061 
18.768 1.786 4.79 214 170 109 3076 
18.769 1.787 4.787 214 170 107 3092 
18.769 1.787 4.782 215 171 106 3067 
18.768 1.785 4.775 218 173 108 3012 
18.769 1.787 4.772 219 174 107 3063 
18.77 1.789 4.769 218 174 111 3092 
18.77 1.789 4.766 220 176 113 3063 
18.771 1.791 4.763 218 174 109 3115 
18.772 1.792 4.759 217 172 105 3059 
18.773 1.795 4.758 214 169 102 3034 
18.774 1.796 4.754 215 170 103 2962 
18.774 1.796 4.75 215 170 105 3025 
18.773 1.793 4.742 214 170 109 3070 
18.773 1.793 4.737 212 168 107 3072 
18.774 1.795 4.735 213 169 106 3011 
18.775 1.797 4.731 211 167 104 3092 
18.774 1.796 4.725 215 170 105 3025 
18.775 1.797 4.722 217 169 103 3004 
18.774 1.794 4.714 218 171 103 3082 
18.773 1.793 4.708 217 170 102 3006 
18.773 1.791 4.7 216 168 104 2978 
18.774 1.793 4.698 220 172 110 2977 
18.774 1.794 4.693 221 175 115 2912 
18.776 1.797 4.694 219 173 111 3128 
18.775 1.796 4.687 214 169 104 3034 
18.775 1.795 4.681 215 170 103 3036 
18.774 1.792 4.672 218 170 106 2959 
18.774 1.792 4.668 217 168 109 3050 
18.774 1.793 4.663 213 167 105 3090 
18.774 1.792 4.658 209 165 100 3109 
18.772 1.789 4.649 210 167 99 2992 
18.771 1.787 4.642 210 165 98 3088 
18.775 1.794 4.646 213 166 98 3037 
18.776 1.796 4.644 217 170 100 3022 
18.775 1.793 4.636 214 169 101 3061 
18.774 1.792 4.63 213 170 102 2992 
18.774 1.791 4.624 218 170 104 3002 
18.774 1.791 4.619 211 163 101 2992 
18.775 1.793 4.616 180 131 75 2959 
18.776 1.794 4.613 177 130 76 2894 
18.775 1.792 4.605 198 156 98 2920 
18.776 1.793 4.603 214 168 108 2984 
18.775 1.792 4.596 209 163 101 2994 
18.776 1.794 4.594 205 159 97 2919 
18.776 1.793 4.589 208 160 98 2877 
18.776 1.793 4.583 202 154 92 2914 
18.775 1.791 4.576 194 145 86 2853 
18.775 1.792 4.573 182 136 77 2885 
18.776 1.793 4.57 179 130 74 2955 
18.775 1.791 4.563 170 120 67 2955 
18.776 1.793 4.56 172 120 70 2954 
18.775 1.789 4.551 173 121 71 2943 
18.775 1.79 4.548 197 148 92 2951 
18.774 1.788 4.54 201 152 94 2937 
18.772 1.784 4.53 204 155 96 2955 
18.771 1.781 4.522 204 158 96 2944 
18.772 1.782 4.519 206 160 98 3007 
18.772 1.784 4.516 209 164 99 3059 
18.772 1.784 4.511 209 164 97 2976 
18.774 1.786 4.51 210 165 98 3046 
18.772 1.783 4.502 207 162 97 3012 
18.772 1.783 4.497 184 138 79 2938 
18.772 1.783 4.493 157 111 61 2886 
18.773 1.784 4.489 173 127 78 2992 
18.772 1.781 4.481 184 139 84 3044 
18.773 1.784 4.479 203 158 99 3039 
18.773 1.783 4.474 211 166 109 3055 
18.775 1.787 4.475 212 167 110 3112 
18.775 1.787 4.471 201 156 101 3168 
18.775 1.787 4.466 186 141 86 3184 
18.775 1.787 4.461 178 132 82 3090 
18.776 1.788 4.459 184 137 91 3075 
18.775 1.787 4.452 195 151 106 3088 
18.776 1.787 4.448 191 149 101 2986 
18.776 1.788 4.445 192 151 105 3053 
18.776 1.787 4.439 197 156 112 3047 
18.777 1.79 4.438 204 167 125 3022 
18.776 1.787 4.43 209 171 134 3068 
18.775 1.785 4.423 210 175 137 2990 
18.775 1.786 4.42 215 179 143 2959 
18.775 1.785 4.413 215 181 144 3044 
18.777 1.788 4.413 216 182 145 3001 
18.775 1.784 4.404 216 182 145 3053 
18.774 1.783 4.398 216 182 144 2923 
18.774 1.783 4.393 215 180 142 2925 
18.776 1.785 4.392 214 179 139 2986 
18.775 1.783 4.384 213 178 138 2967 
18.775 1.784 4.381 215 180 140 2953 
18.776 1.785 4.378 216 181 141 2979 
18.776 1.784 4.372 214 179 139 3042 
18.776 1.784 4.368 214 177 135 2934 
18.775 1.783 4.363 216 179 137 2961 
18.774 1.781 4.356 218 181 139 3018 
18.775 1.782 4.352 220 181 138 2960 
18.775 1.782 4.348 210 173 129 3038 
18.775 1.782 4.343 205 166 123 3013 
18.775 1.782 4.339 207 168 125 3044 
18.775 1.782 4.334 216 175 131 3010 
18.775 1.782 4.33 211 169 121 3030 
18.773 1.778 4.322 207 165 115 2956 
18.775 1.781 4.32 211 166 111 2944 
18.774 1.779 4.314 208 162 103 3076 
18.776 1.783 4.314 210 160 99 2972 
18.776 1.782 4.309 210 161 95 3032 
18.775 1.781 4.303 210 161 94 2965 
18.775 1.78 4.297 213 163 94 2971 
18.774 1.779 4.292 212 161 95 2957 
18.773 1.777 4.285 211 162 96 3003 
18.773 1.775 4.279 212 163 97 2965 
18.774 1.778 4.277 212 164 98 3069 
18.778 1.827 5.132 205 152 74 3071 
18.778 1.828 5.128 206 150 73 3157 
18.778 1.828 5.122 203 147 70 3170 
18.777 1.826 5.113 203 147 70 3080 
18.777 1.826 5.109 202 146 69 3037 
18.777 1.826 5.103 201 145 70 3115 
18.778 1.826 5.098 202 146 72 3077 
18.778 1.826 5.093 204 148 74 3030 
18.778 1.826 5.087 200 146 72 3089 
18.778 1.825 5.081 203 149 77 3034 
18.777 1.823 5.072 200 147 77 2995 
18.776 1.822 5.066 208 156 83 3010 
18.776 1.822 5.06 205 151 77 2995 
18.777 1.823 5.057 201 145 70 2980 
18.776 1.822 5.05 202 145 68 2910 
18.777 1.823 5.045 200 144 67 3017 
18.776 1.82 5.037 200 144 67 3038 
18.775 1.819 5.03 203 150 72 2934 
18.776 1.82 5.027 204 151 73 2942 
18.776 1.819 5.02 204 151 73 2934 
18.776 1.819 5.015 204 151 75 2978 
18.776 1.819 5.01 201 148 72 3009 
18.777 1.82 5.005 205 149 74 2981 
18.776 1.819 4.999 204 151 75 3042 
18.776 1.82 4.995 208 154 82 2975 
18.777 1.821 4.992 205 151 79 2922 
18.776 1.818 4.982 204 150 78 2969 
18.777 1.819 4.979 205 151 79 3007 
18.775 1.815 4.968 204 150 78 3009 
18.776 1.817 4.966 203 149 75 2953 
18.776 1.818 4.961 202 148 74 2931 
18.776 1.817 4.955 203 151 76 2973 
18.776 1.816 4.949 201 149 74 3032 
18.774 1.814 4.94 203 149 75 2942 
18.774 1.813 4.935 201 147 73 2952 
18.774 1.813 4.93 202 148 74 2940 
18.774 1.813 4.924 205 149 75 2927 
18.774 1.812 4.918 200 144 70 3015 
18.775 1.814 4.915 205 149 72 3100 
18.775 1.814 4.91 205 149 74 2968 
18.775 1.814 4.904 206 150 76 2990 
18.775 1.812 4.898 209 155 81 3051 
18.774 1.812 4.892 209 157 84 2967 
18.775 1.813 4.889 212 163 94 3021 
18.775 1.812 4.883 208 160 96 3097 
18.776 1.815 4.882 196 145 80 3148 
18.777 1.816 4.878 177 126 61 3054 
18.777 1.816 4.873 188 142 80 3102 
18.775 1.813 4.864 210 168 108 3062 
18.776 1.813 4.859 212 169 116 3017 
18.775 1.812 4.853 209 166 115 3056 
18.776 1.813 4.848 206 163 112 3038 
18.775 1.811 4.841 210 169 117 3021 
18.775 1.811 4.837 203 160 107 3027 
18.775 1.81 4.83 193 151 93 2993 
18.774 1.809 4.824 203 159 98 3076 
18.773 1.806 4.815 214 168 106 3027 
18.771 1.801 4.803 215 170 105 3096 
18.77 1.8 4.796 213 168 103 3092 
18.769 1.798 4.789 213 168 103 3076 
18.77 1.798 4.785 213 167 105 3085 
18.77 1.798 4.78 213 169 108 3160 
18.771 1.8 4.777 214 170 109 3107 
18.775 1.808 4.782 215 171 110 3128 
18.776 1.81 4.781 215 171 110 2973 
18.775 1.809 4.774 216 172 109 3042 
18.776 1.811 4.772 215 171 106 3029 
18.777 1.812 4.768 214 170 105 3004 
18.776 1.81 4.761 218 174 113 2955 
18.776 1.81 4.756 217 172 115 3072 
18.777 1.811 4.753 213 171 113 3043 
18.777 1.811 4.747 206 164 106 3060 
18.776 1.81 4.742 204 162 104 3046 
18.776 1.808 4.734 203 156 100 3034 
18.776 1.808 4.729 189 140 82 3001 
18.776 1.807 4.724 191 140 83 2934 
18.776 1.808 4.72 203 156 102 3084 
18.776 1.808 4.715 210 164 105 2956 
18.777 1.81 4.713 199 152 96 3085 
18.776 1.808 4.705 201 156 99 3046 
18.777 1.81 4.702 209 164 107 3076 
18.777 1.808 4.696 212 170 112 2987 
18.774 1.803 4.684 212 169 114 2951 
18.773 1.8 4.676 206 163 110 2944 
18.771 1.797 4.667 198 157 103 3001 
18.771 1.797 4.662 197 158 103 2963 
18.771 1.796 4.656 201 162 107 2906 
18.77 1.795 4.65 194 153 97 2953 
18.771 1.796 4.647 186 141 82 3062 
18.772 1.798 4.644 186 137 71 3031 
18.772 1.797 4.638 199 151 85 3035 
18.773 1.799 4.636 217 169 103 3128 
18.775 1.803 4.636 215 170 105 3072 
18.776 1.805 4.635 189 143 84 3095 
18.777 1.808 4.633 156 108 60 3076 
18.777 1.806 4.626 174 127 85 3109 
18.778 1.808 4.624 194 150 105 3117 
18.777 1.806 4.617 196 156 105 3052 
18.777 1.806 4.612 197 161 109 3071 
18.777 1.805 4.606 194 158 108 3084 
18.776 1.804 4.601 197 157 108 2992 
18.777 1.805 4.597 189 146 95 2968 
18.777 1.806 4.593 192 151 97 3036 
18.777 1.805 4.587 197 154 103 2992 
18.777 1.804 4.581 189 141 93 2965 
18.778 1.807 4.581 167 116 71 3078 
18.776 1.803 4.571 155 106 65 2992 
18.777 1.803 4.566 161 113 73 3054 
18.777 1.804 4.563 170 121 78 2975 
18.778 1.806 4.561 175 128 82 2975 
18.778 1.806 4.556 180 136 87 2934 
18.777 1.804 4.548 189 147 97 2923 
18.778 1.805 4.545 191 150 96 2948 
18.775 1.799 4.534 196 155 99 2902 
18.773 1.796 4.525 200 157 102 2917 
18.776 1.801 4.527 211 169 111 2909 
18.775 1.798 4.519 212 172 113 2904 
18.772 1.793 4.507 204 161 108 2995 
18.773 1.794 4.504 176 129 83 3007 
18.773 1.793 4.499 151 102 59 3097 
18.775 1.797 4.499 175 127 81 3094 
18.773 1.793 4.489 184 137 91 2927 
18.773 1.794 4.485 167 122 80 2993 
18.774 1.795 4.482 144 99 58 2919 
18.774 1.795 4.478 145 98 54 2956 
18.775 1.796 4.475 154 110 63 3043 
18.775 1.797 4.471 164 121 76 3039 
18.775 1.798 4.468 161 118 75 3071 
18.776 1.798 4.463 158 115 72 3092 
18.777 1.8 4.461 165 124 78 3154 
18.777 1.8 4.457 181 140 94 3047 
18.777 1.799 4.451 189 148 102 3015 
18.777 1.799 4.447 185 148 104 3026 
18.776 1.797 4.44 202 166 132 2913 
18.776 1.797 4.436 217 181 147 2930 
18.776 1.797 4.431 216 181 149 2954 
18.778 1.8 4.43 218 185 152 2921 
18.776 1.797 4.422 216 183 150 2859 
18.776 1.797 4.417 215 181 146 2895 
18.776 1.797 4.412 215 179 143 2934 
18.777 1.798 4.409 215 180 142 2993 
18.777 1.799 4.406 216 181 141 2954 
18.777 1.798 4.401 213 178 138 2931 
18.776 1.796 4.394 213 178 138 2927 
18.777 1.797 4.39 213 178 138 2878 
18.776 1.796 4.384 211 176 136 2859 
18.776 1.795 4.38 211 176 136 2918 
18.777 1.797 4.377 210 173 131 2937 
18.775 1.794 4.369 201 164 122 2988 
18.776 1.794 4.365 201 164 120 2992 
18.776 1.795 4.361 209 172 127 2951 
18.776 1.795 4.357 211 174 129 2965 
18.776 1.794 4.351 210 172 125 2918 
18.776 1.795 4.348 208 170 123 2978 
18.775 1.792 4.34 208 168 119 3021 
18.776 1.795 4.339 210 170 119 3038 
18.776 1.794 4.334 211 171 119 3017 
18.777 1.796 4.332 212 171 119 3032 
18.778 1.796 4.328 218 172 120 3020 
18.776 1.793 4.32 212 166 106 2976 
18.777 1.795 4.317 209 161 99 2927 
18.777 1.795 4.313 209 161 95 3056 
18.777 1.794 4.307 208 160 96 2975 
18.776 1.792 4.301 209 161 99 3014 
18.776 1.792 4.296 209 163 101 3010 
18.776 1.793 4.293 209 164 99 2986 
18.776 1.792 4.288 209 164 99 3080 
18.777 1.793 4.284 212 162 99 3079 
18.777 1.793 4.28 213 165 101 3062 
18.776 1.829 5.131 206 151 71 3172 
18.776 1.83 5.126 203 147 70 3147 
18.776 1.83 5.12 204 148 71 3114 
18.776 1.829 5.114 205 149 72 3017 
18.775 1.827 5.106 206 150 75 3037 
18.776 1.828 5.102 205 149 74 3039 
18.776 1.828 5.097 204 148 74 3107 
18.775 1.827 5.09 202 148 74 3135 
18.775 1.826 5.083 200 146 72 3052 
18.776 1.827 5.08 199 147 74 3053 
18.775 1.825 5.072 202 150 77 3012 
18.774 1.824 5.064 205 153 80 2978 
18.774 1.823 5.059 203 151 76 2957 
18.775 1.824 5.054 202 146 71 2942 
18.774 1.822 5.047 200 144 67 2984 
18.775 1.824 5.044 200 144 67 3047 
18.773 1.82 5.034 203 147 70 3015 
18.774 1.822 5.031 204 151 73 2934 
18.774 1.821 5.024 205 152 74 2989 
18.773 1.821 5.018 203 150 72 2880 
18.774 1.821 5.014 203 150 72 3013 
18.775 1.822 5.01 204 151 75 3037 
18.773 1.819 5 203 150 74 3034 
18.774 1.82 4.996 204 150 76 3035 
18.775 1.822 4.994 206 152 78 3030 
18.774 1.82 4.987 206 152 80 2986 
18.774 1.819 4.981 205 151 79 3005 
18.773 1.819 4.974 206 152 78 2975 
18.774 1.819 4.97 206 152 78 2923 
18.773 1.818 4.963 206 152 78 2860 
18.774 1.819 4.96 205 151 77 2945 
18.773 1.817 4.952 203 149 75 3053 
18.772 1.816 4.944 201 147 73 2961 
18.772 1.815 4.939 200 146 72 2942 
18.772 1.815 4.934 201 147 73 2961 
18.773 1.816 4.93 202 148 76 2913 
18.772 1.814 4.922 203 149 77 2987 
18.773 1.817 4.921 203 149 77 3110 
18.773 1.815 4.912 202 148 76 3017 
18.772 1.814 4.906 205 151 77 2971 
18.773 1.814 4.902 205 151 77 3042 
18.771 1.811 4.893 207 153 79 2992 
18.773 1.814 4.891 209 157 84 3077 
18.772 1.813 4.885 210 160 89 3067 
18.773 1.814 4.881 212 162 93 3044 
18.774 1.817 4.88 211 162 93 3131 
18.776 1.819 4.878 188 140 74 3076 
18.773 1.815 4.867 183 139 78 3026 
18.775 1.817 4.865 199 157 99 3053 
18.774 1.815 4.858 213 170 117 3006 
18.774 1.815 4.852 207 163 114 3042 
18.774 1.815 4.847 208 166 116 3022 
18.772 1.811 4.837 216 175 123 3044 
18.774 1.814 4.837 210 167 112 3040 
18.773 1.812 4.829 191 146 89 3047 
18.772 1.811 4.823 174 128 68 3111 
18.771 1.807 4.813 184 139 74 3111 
18.768 1.802 4.801 206 161 96 3085 
18.768 1.801 4.795 209 163 101 3088 
18.767 1.799 4.787 213 167 107 3159 
18.767 1.799 4.782 212 168 105 3182 
18.768 1.801 4.78 213 169 108 3114 
18.77 1.805 4.779 213 169 108 3080 
18.775 1.814 4.787 214 170 109 2993 
18.774 1.813 4.781 213 169 108 3042 
18.774 1.812 4.775 215 169 107 3015 
18.775 1.813 4.771 214 168 106 3047 
18.775 1.812 4.766 203 155 93 2985 
18.774 1.812 4.76 214 165 109 2989 
18.775 1.813 4.756 209 162 106 3111 
18.776 1.815 4.753 200 155 100 3019 
18.775 1.812 4.745 192 149 96 3096 
18.773 1.808 4.735 185 142 89 3025 
18.773 1.808 4.731 184 138 86 3034 
18.773 1.809 4.726 178 128 77 2931 
18.773 1.808 4.721 184 134 83 3003 
18.774 1.81 4.718 190 147 96 2993 
18.775 1.811 4.715 188 145 92 3042 
18.774 1.809 4.707 183 140 85 2988 
18.775 1.811 4.706 194 151 98 3106 
18.774 1.81 4.699 198 154 105 2994 
18.774 1.808 4.691 206 163 112 2997 
18.772 1.805 4.683 204 162 112 2913 
18.77 1.8 4.672 197 155 105 2998 
18.769 1.798 4.665 195 155 104 2995 
18.769 1.798 4.66 198 158 107 2930 
18.769 1.798 4.655 202 165 113 2928 
18.769 1.798 4.65 201 160 106 3034 
18.769 1.797 4.644 192 147 88 3064 
18.768 1.795 4.637 166 118 56 2988 
18.769 1.798 4.636 148 100 38 3067 
18.771 1.8 4.634 159 111 49 3109 
18.773 1.806 4.636 197 153 92 3110 
18.774 1.806 4.632 164 116 67 3087 
18.774 1.806 4.628 150 98 58 3080 
18.775 1.809 4.627 181 133 95 3104 
18.774 1.806 4.617 198 155 112 3100 
18.776 1.809 4.617 205 167 120 3056 
18.775 1.808 4.611 206 170 122 3137 
18.775 1.808 4.606 202 165 120 2998 
18.775 1.807 4.6 202 160 118 3042 
18.775 1.808 4.597 185 147 102 2982 
18.775 1.806 4.59 189 152 107 3026 
18.774 1.805 4.584 205 163 113 2972 
18.774 1.805 4.579 190 146 99 3059 
18.775 1.806 4.575 162 113 70 3076 
18.774 1.806 4.571 155 108 66 3068 
18.775 1.806 4.566 167 120 76 3105 
18.775 1.807 4.562 169 122 76 3069 
18.775 1.805 4.556 174 130 85 2994 
18.775 1.805 4.552 184 140 95 2969 
18.775 1.805 4.547 191 149 101 3017 
18.775 1.805 4.543 193 151 101 2898 
18.773 1.802 4.533 180 137 86 2905 
18.773 1.802 4.528 164 118 66 2917 
18.774 1.803 4.525 199 156 101 2951 
18.771 1.797 4.513 211 172 115 2907 
18.771 1.797 4.509 207 167 116 3030 
18.771 1.795 4.502 166 122 77 3059 
18.772 1.797 4.5 128 81 37 3155 
18.771 1.795 4.493 152 103 60 3025 
18.77 1.793 4.486 163 114 71 2959 
18.771 1.796 4.485 154 105 65 2897 
18.771 1.796 4.48 145 95 60 2962 
18.771 1.795 4.475 153 105 69 2951 
18.773 1.798 4.474 158 113 74 3078 
18.773 1.799 4.47 151 103 63 3089 
18.772 1.797 4.464 151 103 63 3137 
18.774 1.801 4.463 161 116 75 3134 
18.775 1.802 4.46 166 123 81 3130 
18.776 1.802 4.457 181 138 96 2981 
18.776 1.803 4.452 182 141 97 2975 
18.774 1.799 4.443 188 148 113 2940 
18.775 1.801 4.441 212 173 142 2922 
18.775 1.801 4.436 217 180 151 2906 
18.775 1.802 4.433 213 180 149 2925 
18.774 1.799 4.425 213 182 151 2876 
18.774 1.799 4.421 215 185 151 2880 
18.774 1.798 4.415 215 181 146 2930 
18.775 1.8 4.413 214 181 140 3017 
18.774 1.798 4.407 219 181 144 2986 
18.774 1.798 4.402 217 179 140 2926 
18.775 1.799 4.399 213 178 138 2936 
18.774 1.797 4.391 214 179 139 2947 
18.774 1.798 4.388 213 178 138 2818 
18.773 1.795 4.381 214 179 139 2914 
18.775 1.799 4.38 215 180 138 2961 
18.773 1.795 4.372 217 180 138 2914 
18.775 1.798 4.371 210 173 129 2940 
18.774 1.797 4.364 208 170 125 2957 
18.774 1.796 4.359 209 171 126 2919 
18.775 1.798 4.357 214 176 129 2925 
18.774 1.797 4.351 213 172 126 2959 
18.773 1.794 4.344 210 169 123 2992 
18.774 1.796 4.341 213 173 124 3056 
18.774 1.796 4.337 213 171 121 3061 
18.774 1.795 4.332 212 171 119 3059 
18.774 1.796 4.329 211 170 118 3039 
18.775 1.797 4.325 213 172 120 3061 
18.774 1.796 4.319 214 171 116 2959 
18.775 1.796 4.315 215 173 115 3042 
18.775 1.796 4.311 215 170 111 3050 
18.774 1.794 4.304 215 170 113 2944 
18.774 1.793 4.299 214 168 109 2979 
18.774 1.794 4.295 214 169 110 2926 
18.775 1.795 4.293 213 169 108 3046 
18.776 1.797 4.291 211 165 103 3110 
18.775 1.795 4.283 212 166 104 3051 
18.775 1.795 4.279 213 167 107 2992 
18.777 1.84 5.133 201 145 70 3122 
18.777 1.84 5.128 203 147 72 3050 
18.777 1.84 5.122 207 153 79 2995 
18.777 1.839 5.116 208 154 80 3043 
18.776 1.839 5.109 207 153 79 3025 
18.776 1.837 5.102 206 153 77 2998 
18.777 1.839 5.099 206 153 77 2948 
18.776 1.837 5.091 206 152 78 2957 
18.777 1.837 5.087 205 153 78 2975 
18.775 1.835 5.078 206 154 79 2988 
18.776 1.837 5.075 206 154 79 2984 
18.776 1.835 5.068 205 153 78 2954 
18.776 1.836 5.063 201 148 72 3110 
18.775 1.834 5.056 200 147 69 3062 
18.775 1.833 5.05 197 144 66 3037 
18.774 1.831 5.042 200 147 69 3101 
18.774 1.831 5.036 202 149 71 3076 
18.774 1.83 5.029 202 149 73 3157 
18.773 1.829 5.022 201 148 72 3302 
18.774 1.83 5.02 201 149 73 3115 
18.774 1.83 5.013 202 148 74 3101 
18.775 1.831 5.01 202 148 74 3087 
18.774 1.83 5.003 203 147 73 3086 
18.776 1.832 5.001 204 148 74 3087 
18.775 1.83 4.993 203 149 75 3173 
18.775 1.831 4.989 203 150 74 3084 
18.775 1.831 4.984 201 149 73 3103 
18.775 1.83 4.978 201 149 73 3062 
18.775 1.831 4.974 199 147 72 3017 
18.774 1.829 4.965 200 148 73 3017 
18.775 1.829 4.961 198 146 71 2984 
18.774 1.827 4.953 204 150 76 3076 
18.774 1.827 4.948 203 149 75 3144 
18.773 1.826 4.941 201 147 73 3069 
18.774 1.827 4.937 202 148 74 2977 
18.773 1.826 4.931 203 149 75 2909 
18.772 1.823 4.922 202 148 74 3007 
18.774 1.826 4.92 206 150 75 2952 
18.773 1.825 4.914 206 150 75 2946 
18.773 1.823 4.907 205 151 77 2903 
18.773 1.823 4.902 205 151 79 3044 
18.773 1.823 4.896 207 154 84 2971 
18.773 1.823 4.891 205 152 84 3025 
18.774 1.826 4.89 204 154 85 3003 
18.774 1.825 4.883 208 158 89 2934 
18.774 1.826 4.88 201 150 84 2962 
18.774 1.825 4.874 192 143 77 3121 
18.775 1.825 4.87 192 146 86 2992 
18.774 1.825 4.864 200 155 100 3009 
18.775 1.825 4.859 207 164 113 3020 
18.773 1.823 4.851 216 176 127 2972 
18.775 1.824 4.848 212 172 123 2972 
18.774 1.823 4.842 210 168 118 2992 
18.775 1.824 4.838 214 171 120 3035 
18.776 1.828 4.838 211 168 113 3038 
18.775 1.825 4.829 208 163 106 2909 
18.775 1.823 4.822 194 150 85 3012 
18.775 1.824 4.818 198 154 89 3117 
18.775 1.824 4.814 200 155 96 3044 
18.775 1.824 4.808 206 161 104 2990 
18.775 1.825 4.804 213 168 111 2927 
18.775 1.825 4.799 216 171 114 2952 
18.776 1.825 4.794 216 171 114 3153 
18.776 1.826 4.791 218 173 116 2978 
18.776 1.824 4.783 214 169 112 2957 
18.775 1.823 4.777 208 161 105 3015 
18.775 1.823 4.772 179 128 75 3040 
18.775 1.822 4.766 148 95 41 2881 
18.775 1.823 4.762 170 124 72 3032 
18.776 1.824 4.76 187 143 94 3072 
18.776 1.825 4.755 183 141 93 2957 
18.775 1.821 4.745 178 134 87 3012 
18.775 1.82 4.739 165 118 72 3034 
18.775 1.82 4.735 169 121 73 2970 
18.775 1.821 4.73 193 153 104 3035 
18.775 1.821 4.726 204 164 112 3069 
18.777 1.824 4.726 185 144 90 2942 
18.775 1.821 4.717 183 142 90 3009 
18.775 1.821 4.711 198 156 108 2923 
18.775 1.819 4.704 204 161 116 2986 
18.776 1.821 4.702 201 159 111 3051 
18.776 1.821 4.697 192 152 101 3088 
18.774 1.818 4.688 191 149 99 2989 
18.772 1.813 4.677 192 151 105 3055 
18.771 1.812 4.67 201 163 116 3007 
18.771 1.811 4.665 209 172 120 3036 
18.77 1.809 4.658 206 165 111 3034 
18.771 1.81 4.654 211 166 109 3015 
18.771 1.81 4.65 213 168 109 3021 
18.771 1.81 4.644 186 140 80 3056 
18.77 1.808 4.638 193 146 90 3042 
18.771 1.81 4.635 175 125 76 3007 
18.771 1.809 4.63 130 77 35 3006 
18.772 1.81 4.625 120 71 30 3001 
18.774 1.814 4.627 127 80 36 3130 
18.774 1.816 4.623 142 98 51 3120 
18.775 1.816 4.62 153 109 64 3211 
18.774 1.815 4.613 178 133 94 3111 
18.774 1.814 4.606 195 151 116 3167 
18.773 1.811 4.599 193 154 115 3140 
18.774 1.814 4.598 185 147 108 3007 
18.774 1.813 4.592 174 137 93 3053 
18.773 1.812 4.585 166 125 81 3102 
18.773 1.812 4.581 157 114 71 3121 
18.772 1.81 4.574 160 117 74 3176 
18.774 1.812 4.572 163 120 77 3162 
18.773 1.811 4.566 163 118 76 3162 
18.773 1.811 4.561 167 124 81 3067 
18.774 1.812 4.559 175 133 91 3113 
18.774 1.812 4.553 189 147 105 2982 
18.773 1.81 4.546 182 141 95 2940 
18.772 1.808 4.539 169 125 76 2956 
18.774 1.812 4.54 167 121 71 2969 
18.773 1.81 4.532 157 110 58 2929 
18.774 1.811 4.529 171 128 77 3042 
18.772 1.807 4.519 191 147 98 2968 
18.77 1.803 4.51 201 158 113 2961 
18.77 1.803 4.505 181 136 94 2995 
18.77 1.803 4.5 139 94 53 3001 
18.769 1.8 4.492 134 85 45 2954 
18.769 1.8 4.488 139 87 48 3007 
18.77 1.802 4.486 137 83 47 2980 
18.77 1.8 4.479 134 82 42 2960 
18.769 1.8 4.474 142 93 52 3014 
18.771 1.804 4.474 148 100 62 3051 
18.772 1.805 4.471 151 103 67 3159 
18.773 1.806 4.468 163 117 83 3113 
18.774 1.809 4.468 158 112 76 3139 
18.776 1.812 4.467 166 123 81 3120 
18.776 1.814 4.464 167 124 79 3053 
18.777 1.815 4.461 170 132 85 3003 
18.776 1.812 4.453 178 142 94 2937 
18.776 1.811 4.447 191 154 109 2959 
18.776 1.811 4.442 206 171 129 2901 
18.777 1.813 4.44 204 170 132 2992 
18.775 1.81 4.432 205 171 134 2931 
18.776 1.812 4.43 208 172 136 2930 
18.775 1.81 4.423 213 177 141 2947 
18.776 1.81 4.419 214 176 137 2832 
18.775 1.81 4.414 211 174 130 2880 
18.776 1.81 4.41 209 172 128 2901 
18.776 1.812 4.407 210 173 129 2884 
18.776 1.81 4.401 208 169 126 2823 
18.776 1.811 4.397 209 171 126 2998 
18.776 1.81 4.392 208 170 125 2926 
18.776 1.809 4.386 202 164 119 2951 
18.776 1.808 4.381 200 162 115 2997 
18.775 1.808 4.376 204 163 117 2976 
18.775 1.807 4.371 206 166 117 2994 
18.775 1.807 4.366 212 172 123 3026 
18.774 1.806 4.361 213 171 121 3017 
18.775 1.806 4.356 210 168 118 2942 
18.775 1.806 4.352 212 170 120 3038 
18.775 1.806 4.347 212 170 120 2990 
18.774 1.805 4.342 212 170 122 3032 
18.775 1.806 4.338 216 174 126 3093 
18.776 1.808 4.337 217 177 128 3090 
18.775 1.806 4.33 216 176 127 3034 
18.775 1.806 4.325 215 175 124 3042 
18.775 1.806 4.321 213 172 120 3034 
18.776 1.806 4.317 210 169 115 3029 
18.776 1.806 4.312 211 168 115 3051 
18.776 1.807 4.309 211 168 113 3017 
18.776 1.806 4.304 209 166 111 3009 
18.775 1.805 4.298 215 170 113 2992 
18.775 1.805 4.293 216 171 114 2985 
18.775 1.805 4.289 218 173 118 2956 
18.775 1.804 4.284 219 174 119 2964 
18.774 1.803 4.278 220 177 124 3038 
18.776 1.805 4.277 218 175 122 2909 
18.776 1.847 5.135 205 151 77 3011 
18.776 1.847 5.129 209 157 84 2984 
18.777 1.848 5.126 213 161 88 3162 
18.776 1.846 5.117 211 159 86 3013 
18.776 1.846 5.112 206 152 78 3020 
18.776 1.846 5.107 206 153 77 2987 
18.777 1.847 5.104 204 151 75 2959 
18.775 1.844 5.094 205 152 76 2927 
18.777 1.847 5.092 202 150 75 2998 
18.775 1.843 5.082 204 152 77 3073 
18.776 1.844 5.077 205 156 80 2893 
18.775 1.843 5.071 203 154 78 2921 
18.775 1.841 5.063 203 151 75 3045 
18.776 1.843 5.061 199 146 70 2997 
18.773 1.838 5.048 199 146 70 2981 
18.773 1.837 5.042 200 146 72 3059 
18.772 1.836 5.035 201 147 73 3097 
18.772 1.834 5.027 201 149 74 3176 
18.772 1.835 5.023 202 150 75 3051 
18.772 1.835 5.019 202 150 77 3121 
18.774 1.839 5.018 203 149 75 3048 
18.773 1.836 5.009 202 148 74 3146 
18.773 1.836 5.004 200 146 72 3095 
18.774 1.837 5 201 147 75 3055 
18.774 1.838 4.996 202 150 77 2967 
18.774 1.837 4.99 201 151 80 3059 
18.775 1.839 4.988 201 153 81 3073 
18.775 1.839 4.982 201 152 83 3090 
18.774 1.837 4.975 201 152 83 3019 
18.773 1.835 4.967 200 150 79 3106 
18.775 1.838 4.965 200 150 79 3069 
18.773 1.835 4.956 203 151 78 3036 
18.774 1.835 4.951 203 151 78 3017 
18.772 1.832 4.942 203 151 78 2967 
18.773 1.834 4.939 201 149 76 2976 
18.773 1.833 4.933 202 148 74 3011 
18.773 1.832 4.926 202 148 74 2944 
18.773 1.832 4.921 202 149 73 2927 
18.772 1.83 4.914 206 150 75 2871 
18.771 1.829 4.907 203 149 75 2959 
18.772 1.831 4.905 205 151 79 3006 
18.773 1.832 4.902 208 154 84 3023 
18.773 1.831 4.895 208 158 89 3015 
18.773 1.832 4.891 206 156 87 3055 
18.773 1.831 4.885 206 153 85 3067 
18.772 1.83 4.879 212 159 91 2995 
18.774 1.833 4.877 204 153 87 3080 
18.775 1.834 4.874 191 143 81 3051 
18.774 1.833 4.867 182 137 80 3002 
18.773 1.83 4.859 195 149 97 2965 
18.774 1.832 4.857 214 170 121 3017 
18.774 1.832 4.851 214 171 126 3045 
18.774 1.831 4.845 208 170 125 3011 
18.774 1.831 4.84 217 177 128 3001 
18.773 1.83 4.834 212 172 121 3005 
18.774 1.83 4.829 203 162 110 3010 
18.774 1.831 4.825 193 152 98 3159 
18.774 1.831 4.82 193 152 96 3000 
18.773 1.829 4.812 195 154 98 2992 
18.774 1.829 4.808 196 155 99 3031 
18.774 1.83 4.805 195 154 98 2863 
18.774 1.831 4.8 202 159 104 3001 
18.775 1.831 4.795 205 162 107 2965 
18.775 1.831 4.79 204 161 106 2937 
18.774 1.829 4.783 205 162 107 3032 
18.774 1.829 4.779 192 142 89 3002 
18.775 1.83 4.774 178 131 79 2998 
18.774 1.829 4.768 183 140 89 2932 
18.775 1.83 4.764 195 153 103 3018 
18.775 1.83 4.76 193 151 103 2962 
18.774 1.828 4.753 183 141 93 2957 
18.774 1.827 4.747 179 137 89 3025 
18.774 1.829 4.744 184 143 97 3093 
18.773 1.826 4.735 181 142 99 2985 
18.775 1.83 4.735 196 157 114 3004 
18.775 1.829 4.729 204 165 122 3012 
18.774 1.827 4.722 191 153 108 3040 
18.775 1.828 4.719 196 158 113 2953 
18.774 1.826 4.712 202 164 119 2937 
18.774 1.826 4.707 206 167 124 2944 
18.774 1.826 4.701 205 168 124 3001 
18.775 1.828 4.699 205 166 123 3002 
18.773 1.824 4.689 203 164 121 2942 
18.774 1.825 4.685 202 161 115 2997 
18.77 1.817 4.67 200 158 108 3009 
18.769 1.816 4.664 200 159 105 3036 
18.77 1.816 4.66 199 156 101 3013 
18.77 1.816 4.655 203 158 101 3056 
18.77 1.816 4.65 203 158 99 2992 
18.77 1.817 4.646 204 164 103 3038 
18.771 1.818 4.643 208 165 110 3011 
18.77 1.816 4.636 211 168 115 3069 
18.772 1.819 4.635 204 163 107 2967 
18.771 1.817 4.628 201 161 102 3027 
18.769 1.814 4.62 185 139 87 3039 
18.771 1.818 4.62 151 100 55 3059 
18.771 1.818 4.614 122 68 30 3067 
18.771 1.817 4.609 109 59 26 3081 
18.77 1.815 4.602 120 74 40 3117 
18.772 1.817 4.6 194 155 116 3089 
18.771 1.816 4.594 202 163 122 3042 
18.772 1.818 4.591 199 160 117 3026 
18.771 1.816 4.584 191 149 107 3062 
18.772 1.816 4.58 180 142 97 3017 
18.77 1.813 4.572 177 139 92 3194 
18.771 1.816 4.57 183 140 97 3086 
18.773 1.82 4.571 190 151 108 3026 
18.772 1.817 4.562 204 167 125 3038 
18.773 1.819 4.56 205 167 128 2981 
18.772 1.816 4.552 197 160 116 2968 
18.772 1.816 4.548 192 152 103 2934 
18.773 1.818 4.545 177 134 81 2957 
18.772 1.816 4.538 173 126 72 2819 
18.771 1.815 4.532 158 108 59 2917 
18.771 1.813 4.525 143 93 44 2898 
18.771 1.814 4.522 144 94 45 2932 
18.769 1.809 4.511 154 106 60 2923 
18.771 1.812 4.51 155 108 66 2915 
18.769 1.809 4.501 163 116 74 2909 
18.769 1.809 4.497 156 111 69 2986 
18.769 1.808 4.491 169 127 79 2959 
18.77 1.811 4.49 179 133 84 2998 
18.77 1.81 4.484 172 128 81 3070 
18.769 1.808 4.478 149 106 63 3106 
18.768 1.806 4.471 121 75 41 3094 
18.769 1.807 4.467 126 81 50 3182 
18.77 1.809 4.465 144 99 66 3155 
18.77 1.808 4.46 161 116 77 3068 
18.772 1.814 4.462 169 125 80 3064 
18.773 1.816 4.46 179 131 83 3076 
18.775 1.82 4.461 165 117 69 3009 
18.775 1.819 4.455 145 97 51 2968 
18.775 1.818 4.449 162 118 73 2948 
18.775 1.818 4.444 199 156 113 2976 
18.774 1.817 4.439 208 166 124 3004 
18.775 1.817 4.435 208 170 125 3001 
18.775 1.817 4.43 204 166 127 3030 
18.775 1.816 4.425 211 172 131 2951 
18.775 1.817 4.421 217 173 134 2894 
18.774 1.815 4.414 214 170 131 2976 
18.774 1.814 4.409 211 169 127 2967 
18.776 1.819 4.409 208 167 123 2997 
18.774 1.814 4.4 208 165 120 2945 
18.775 1.816 4.397 207 165 117 3012 
18.775 1.817 4.394 202 158 111 3031 
18.774 1.815 4.387 198 154 105 3009 
18.775 1.815 4.383 201 158 107 2965 
18.774 1.814 4.377 198 155 104 2978 
18.775 1.815 4.374 195 153 103 3034 
18.773 1.812 4.366 198 156 106 3053 
18.774 1.813 4.363 208 166 116 3054 
18.774 1.813 4.358 210 168 120 3052 
18.775 1.815 4.356 209 168 122 3009 
18.775 1.814 4.351 209 168 122 3028 
18.774 1.814 4.346 211 170 124 3054 
18.774 1.813 4.341 211 173 128 3081 
18.774 1.812 4.335 216 175 129 3093 
18.775 1.814 4.333 217 176 130 3012 
18.774 1.812 4.327 217 177 128 3017 
18.774 1.811 4.322 218 176 126 3036 
18.775 1.813 4.319 215 174 120 3020 
18.775 1.813 4.314 214 171 116 3021 
18.774 1.812 4.309 209 166 111 3009 
18.775 1.814 4.307 214 169 112 2932 
18.775 1.813 4.301 213 171 113 2871 
18.774 1.811 4.295 213 170 115 2912 
18.774 1.811 4.29 213 172 116 2942 
18.773 1.809 4.283 216 175 121 2962 
18.774 1.81 4.28 217 174 121 2914 
18.775 1.812 4.278 216 173 120 3034 
18.777 1.854 5.13 208 155 85 3068 
18.777 1.855 5.126 208 156 81 3036 
18.776 1.853 5.117 205 152 74 3034 
18.777 1.853 5.113 203 150 72 2984 
18.777 1.853 5.107 203 150 72 2968 
18.776 1.851 5.099 202 149 71 2950 
18.775 1.85 5.092 199 147 71 2984 
18.776 1.851 5.088 204 152 77 2960 
18.775 1.849 5.08 205 156 80 3017 
18.775 1.848 5.074 206 152 78 3139 
18.775 1.848 5.068 206 152 78 3059 
18.774 1.846 5.061 202 148 74 3027 
18.774 1.845 5.054 203 149 75 3160 
18.774 1.846 5.049 202 148 74 3197 
18.773 1.845 5.043 204 150 76 3059 
18.774 1.844 5.037 206 154 79 3086 
