ply
format ascii 1.0
comment Created by CloudCompare v2.11.1 (Anoia)
comment Created 10/13/20 7:31 PM
obj_info Generated by CloudCompare!
element vertex 1084
property float x
property float y
property float z
property uchar red
property uchar green
property uchar blue
property float scalar_Scalar_field
end_header
238.976 2.52518 -0.0116386 241 207 154 1105 
238.987 2.51857 -0.011858 240 208 156 1121 
238.999 2.51247 -0.01227 236 207 160 1121 
239.01 2.50661 -0.0126963 243 210 157 1153 
239.019 2.50019 -0.0126896 238 204 159 1121 
239.03 2.49427 -0.0131407 245 206 157 1169 
239.041 2.48844 -0.0134764 246 211 156 1169 
239.052 2.48159 -0.01367 239 201 149 1057 
239.063 2.47567 -0.0141115 242 207 152 1105 
239.074 2.46981 -0.0144367 251 211 162 1249 
239.084 2.46364 -0.0147419 245 205 154 1137 
239.095 2.45747 -0.0150414 240 204 154 1105 
239.106 2.45185 -0.0156107 243 207 151 1105 
239.116 2.44509 -0.015729 250 210 160 1233 
239.127 2.43922 -0.0162115 241 206 153 1105 
239.138 2.43402 -0.0167379 234 202 148 1009 
239.148 2.42723 -0.0169029 241 204 151 1089 
239.158 2.42122 -0.0172863 237 200 151 1057 
239.169 2.41485 -0.0175867 232 200 146 977 
239.179 2.4085 -0.0178289 239 204 156 1105 
239.19 2.40169 -0.0181417 237 200 151 1057 
234.744 2.96131 0.183646 250 216 163 1249 
234.758 2.96476 0.182823 254 219 166 1313 
234.773 2.96637 0.182526 251 213 160 1233 
234.787 2.96873 0.181987 249 215 159 1217 
234.801 2.97252 0.181067 254 218 166 1313 
234.813 2.97787 0.179875 247 212 161 1217 
234.826 2.98351 0.178559 251 216 164 1265 
237.835 2.9813 0.0203762 250 213 163 1249 
237.848 2.97799 0.0197287 245 217 162 1201 
237.859 2.97405 0.0194521 249 211 163 1249 
237.873 2.96999 0.0188465 242 207 155 1121 
238.065 2.97976 -0.00602818 190 158 140 593 
238.073 2.94157 0.00240231 175 152 97 129 
238.081 2.90393 0.0105648 177 149 109 241 
238.092 2.8985 0.0105486 235 204 156 1073 
238.105 2.89077 0.0108786 242 207 156 1137 
238.116 2.88624 0.0106211 239 211 162 1153 
238.128 2.88101 0.0103321 241 208 158 1137 
238.14 2.87612 0.0100698 247 212 158 1185 
238.152 2.87154 0.0097208 249 211 160 1217 
238.164 2.86661 0.0094862 243 213 158 1153 
238.176 2.86139 0.00919056 249 211 161 1233 
238.188 2.85728 0.00870132 241 208 157 1137 
238.199 2.85282 0.00829506 241 209 156 1121 
238.211 2.84835 0.00790215 244 212 158 1169 
238.224 2.84364 0.00747681 235 205 149 1025 
238.236 2.83924 0.00703144 242 208 154 1121 
238.248 2.83455 0.00665283 239 205 152 1073 
238.26 2.82902 0.00631714 242 209 158 1153 
238.271 2.82433 0.00617313 245 211 158 1169 
238.284 2.81956 0.0055542 251 215 162 1249 
238.294 2.81491 0.0053463 244 213 155 1137 
238.306 2.81006 0.00495529 244 212 156 1153 
238.317 2.80638 0.00448799 242 209 156 1137 
238.329 2.80057 0.00420856 242 208 151 1089 
238.339 2.79626 0.0039587 236 207 148 1025 
238.351 2.79119 0.00358391 242 209 157 1137 
238.363 2.78552 0.00333691 244 211 158 1169 
238.374 2.77996 0.00314522 240 209 155 1105 
238.385 2.77504 0.00296879 243 211 159 1169 
238.398 2.76943 0.00268269 237 212 158 1105 
238.409 2.76366 0.0025053 250 211 159 1217 
238.421 2.75862 0.00211048 245 211 159 1185 
238.431 2.75314 0.00199127 239 209 157 1121 
238.443 2.74848 0.0014925 238 209 155 1089 
238.454 2.74349 0.00119019 237 206 155 1089 
238.466 2.73827 0.000860214 243 208 160 1169 
238.477 2.73295 0.000585556 237 208 150 1041 
238.488 2.72731 0.000387192 241 209 156 1121 
238.5 2.72279 -7.72476e-05 240 208 155 1105 
238.511 2.71784 -0.000509262 236 207 159 1105 
238.522 2.71266 -0.00080204 237 211 154 1073 
238.534 2.70791 -0.00124168 236 204 157 1089 
238.545 2.70239 -0.00156498 241 208 156 1121 
238.556 2.69714 -0.00182056 242 210 159 1153 
238.568 2.69235 -0.00239563 239 212 161 1153 
238.578 2.68611 -0.00240803 241 213 154 1105 
238.59 2.68187 -0.00297165 248 212 157 1185 
238.601 2.67633 -0.00321865 241 208 155 1121 
238.612 2.67082 -0.00355053 241 212 158 1137 
238.623 2.66645 -0.00402546 241 206 156 1121 
238.634 2.66067 -0.00430107 242 209 158 1153 
238.645 2.65544 -0.00456524 240 206 156 1121 
238.656 2.65052 -0.00511837 238 208 156 1105 
238.667 2.6444 -0.00518894 235 205 154 1057 
238.678 2.63891 -0.00553036 232 205 155 1041 
238.689 2.63374 -0.0058794 236 208 157 1089 
238.7 2.62751 -0.00606155 234 204 157 1073 
238.711 2.62174 -0.00627804 239 207 157 1121 
238.722 2.61591 -0.00658131 239 206 158 1121 
238.733 2.6104 -0.00694656 244 211 164 1217 
238.745 2.60441 -0.00720692 234 207 152 1041 
238.755 2.59814 -0.00729847 235 207 155 1073 
238.767 2.59424 -0.00811195 234 206 154 1057 
238.777 2.58673 -0.00792885 238 208 156 1105 
238.788 2.58083 -0.00818062 237 206 158 1105 
238.799 2.57575 -0.00868702 236 208 156 1089 
238.81 2.56994 -0.0089426 240 208 155 1105 
238.822 2.56479 -0.00946712 235 206 155 1073 
238.833 2.55844 -0.00966549 239 207 159 1137 
238.844 2.5525 -0.0099659 237 207 157 1105 
238.855 2.54661 -0.0101624 233 208 152 1025 
238.866 2.54085 -0.0106583 226 198 151 961 
238.877 2.53481 -0.0108767 235 206 153 1057 
238.888 2.52887 -0.0112753 244 208 155 1137 
238.898 2.52402 -0.0116873 236 206 155 1073 
238.91 2.51764 -0.0119991 236 203 151 1041 
238.921 2.51205 -0.0124168 236 198 151 1041 
238.931 2.50615 -0.0126123 237 207 155 1089 
238.942 2.50021 -0.0129442 237 205 155 1089 
238.953 2.49348 -0.0132065 241 207 158 1137 
238.963 2.48854 -0.0135574 247 207 156 1169 
238.974 2.48192 -0.0136681 244 206 152 1121 
238.985 2.4757 -0.0141668 239 206 153 1089 
238.996 2.46939 -0.0143404 246 208 158 1185 
239.006 2.46412 -0.0147171 247 215 160 1201 
239.016 2.45778 -0.014926 242 206 158 1153 
239.027 2.45233 -0.0153751 243 204 150 1089 
239.038 2.44611 -0.015707 243 208 151 1105 
239.049 2.43995 -0.0160236 240 205 152 1089 
239.06 2.43387 -0.0163231 241 205 151 1089 
239.07 2.42801 -0.0167437 243 206 153 1121 
239.081 2.42191 -0.0170355 240 198 145 1025 
239.091 2.41555 -0.0173368 244 206 152 1121 
239.101 2.40931 -0.0175896 240 204 153 1089 
239.113 2.40331 -0.0180492 233 205 148 993 
239.123 2.39735 -0.0183039 238 201 152 1073 
239.133 2.39087 -0.0185909 236 201 148 1025 
239.143 2.38451 -0.0187225 240 204 159 1137 
239.154 2.37857 -0.0191545 242 205 157 1137 
239.164 2.37283 -0.019536 243 207 160 1169 
239.175 2.3661 -0.0198441 242 206 153 1105 
239.185 2.35917 -0.0198107 240 207 157 1121 
234.737 2.91286 0.180033 250 207 156 1201 
234.751 2.91437 0.179693 252 215 162 1265 
234.766 2.91641 0.179262 247 211 157 1185 
234.781 2.91856 0.178843 251 213 159 1233 
234.795 2.92107 0.178262 251 216 159 1233 
234.809 2.9237 0.177635 253 215 162 1265 
234.822 2.92998 0.176227 247 214 153 1153 
234.834 2.93401 0.17535 249 212 160 1217 
234.849 2.93637 0.174748 248 212 158 1201 
234.864 2.93751 0.17452 251 210 156 1201 
234.878 2.94012 0.173829 252 212 162 1265 
234.893 2.9419 0.173412 253 215 162 1265 
234.907 2.94508 0.172622 242 210 157 1137 
234.921 2.94928 0.171634 250 214 167 1281 
234.935 2.95246 0.170844 244 210 154 1137 
234.949 2.95436 0.170402 248 210 162 1233 
234.964 2.95626 0.169853 246 214 157 1169 
234.978 2.95867 0.169242 254 216 163 1281 
234.992 2.96051 0.168675 253 212 158 1233 
235.007 2.96208 0.168263 250 208 161 1233 
235.019 2.96557 0.167334 249 214 157 1201 
235.034 2.96767 0.166821 246 211 157 1169 
235.048 2.96969 0.166224 248 215 163 1233 
235.061 2.97107 0.165832 243 210 154 1121 
235.075 2.97311 0.165216 252 214 161 1249 
235.091 2.97429 0.164795 250 215 164 1265 
235.105 2.97569 0.164374 246 211 155 1153 
235.119 2.97876 0.16345 247 212 159 1201 
235.133 2.98006 0.163 250 216 167 1281 
235.148 2.98223 0.162334 248 217 162 1233 
237.631 2.97581 0.0306664 241 206 157 1137 
237.644 2.98211 0.0277634 248 212 158 1201 
237.656 2.981 0.0267839 245 207 161 1201 
237.669 2.98068 0.0255013 246 212 156 1169 
237.681 2.97917 0.0244799 244 212 159 1169 
237.694 2.9761 0.0239592 244 212 158 1169 
237.706 2.97259 0.0235853 249 210 157 1201 
237.718 2.96802 0.0233335 248 214 158 1201 
237.73 2.9651 0.0227423 249 217 158 1201 
237.744 2.96256 0.0219135 249 216 163 1249 
237.756 2.95984 0.0213118 246 211 156 1169 
237.768 2.95564 0.0210581 249 216 159 1217 
237.78 2.95276 0.0204468 248 217 160 1217 
237.793 2.9495 0.0197573 249 216 159 1217 
237.805 2.9455 0.0194683 252 215 164 1281 
237.818 2.9429 0.0186787 248 211 158 1201 
237.83 2.93922 0.0181894 246 209 158 1185 
237.843 2.93458 0.0179234 246 209 160 1201 
237.854 2.93073 0.0176525 243 204 141 1025 
237.868 2.92777 0.0167933 255 219 155 1233 
237.88 2.92807 0.0153379 244 212 154 1137 
237.896 2.95706 0.00637341 249 206 159 1217 
237.909 2.96274 0.00328827 190 158 119 417 
237.922 2.95802 0.00307274 203 174 125 577 
237.933 2.95624 0.00216007 240 203 141 993 
237.948 2.96554 -0.0017643 254 215 152 1201 
237.961 2.97138 -0.0048399 224 190 138 849 
237.972 2.96472 -0.00441074 250 207 169 1297 
237.987 2.97448 -0.00860119 248 206 158 1201 
237.998 2.96081 -0.0066061 221 184 136 801 
238.009 2.9539 -0.00619888 238 198 147 1025 
238.022 2.95082 -0.00691509 194 162 128 529 
238.034 2.93458 -0.0043869 215 176 136 753 
238.042 2.9069 0.00154686 170 149 103 129 
238.049 2.86471 0.0111198 200 164 130 593 
238.061 2.86069 0.0106707 219 187 143 849 
238.074 2.85753 0.00994682 242 203 152 1105 
238.085 2.85341 0.00946236 241 207 159 1153 
238.098 2.84795 0.00935173 236 206 154 1073 
238.109 2.84452 0.00874138 233 202 151 1025 
238.121 2.83959 0.00844097 233 204 152 1025 
238.133 2.83427 0.00831223 238 205 150 1057 
238.145 2.83019 0.00784683 233 201 149 1009 
238.156 2.82574 0.00749779 232 204 150 1009 
238.169 2.82051 0.00721073 231 204 151 1009 
238.18 2.81588 0.00695896 237 207 154 1073 
238.192 2.81111 0.00667953 243 208 160 1169 
238.204 2.80753 0.00604725 242 206 153 1105 
238.216 2.80188 0.00589085 235 204 155 1073 
238.228 2.79756 0.00535583 238 208 155 1089 
238.24 2.79357 0.0048418 240 209 156 1121 
238.252 2.78845 0.00448227 241 207 160 1153 
238.263 2.78343 0.00436592 237 206 153 1073 
238.276 2.77875 0.00375366 241 208 157 1137 
238.286 2.77451 0.00352478 240 212 158 1137 
238.297 2.76912 0.00327778 241 208 155 1121 
238.308 2.765 0.00285816 241 208 152 1089 
238.321 2.75981 0.00243855 244 210 159 1169 
238.331 2.75662 0.00192451 239 207 154 1089 
238.342 2.75018 0.00195789 243 208 156 1137 
238.354 2.7444 0.00182819 240 210 154 1105 
238.366 2.73975 0.00138474 242 211 157 1137 
238.376 2.73544 0.000971794 235 205 152 1041 
238.389 2.7298 0.000701904 237 206 157 1105 
238.4 2.72454 0.000501633 242 211 156 1137 
238.412 2.71939 0.000118256 246 212 160 1201 
238.422 2.71462 -0.000142097 241 208 155 1121 
238.434 2.70889 -0.000349998 242 209 159 1153 
238.445 2.70462 -0.000894547 245 212 162 1201 
238.456 2.69969 -0.00123501 246 212 159 1185 
238.467 2.6951 -0.00165081 235 207 159 1105 
238.479 2.68976 -0.00197029 232 204 158 1073 
238.49 2.6847 -0.00228882 241 208 159 1153 
238.502 2.68025 -0.00273705 244 211 158 1169 
238.512 2.67453 -0.00288582 234 203 153 1041 
238.523 2.66894 -0.00315666 238 209 156 1105 
238.535 2.66454 -0.00374699 242 209 159 1153 
238.546 2.65939 -0.00400639 244 207 158 1169 
238.557 2.65428 -0.00444984 232 205 151 1009 
238.568 2.64864 -0.00458431 236 210 154 1073 
238.579 2.64356 -0.00499249 243 212 161 1185 
238.59 2.6384 -0.00524235 246 209 158 1185 
238.602 2.63258 -0.00545502 243 209 155 1137 
238.612 2.62829 -0.00592232 251 214 162 1249 
238.623 2.62208 -0.00605392 242 212 154 1121 
238.634 2.61705 -0.00642776 240 209 158 1137 
238.645 2.61169 -0.0067358 237 205 156 1089 
238.655 2.60619 -0.00694561 232 203 149 993 
238.667 2.60048 -0.00726032 232 199 151 1009 
238.677 2.59499 -0.00747871 226 199 150 961 
238.689 2.58977 -0.00801849 237 210 159 1121 
238.7 2.58461 -0.00836945 236 206 156 1089 
238.711 2.57888 -0.00867462 234 205 156 1073 
238.722 2.57282 -0.00878429 235 207 151 1041 
238.733 2.56683 -0.00904274 232 204 154 1041 
238.744 2.56095 -0.00915241 230 207 155 1025 
238.755 2.55558 -0.00964928 234 208 159 1089 
238.766 2.55099 -0.0101728 239 207 158 1121 
238.776 2.54422 -0.0101423 240 209 159 1137 
238.787 2.5386 -0.0105028 232 203 152 1025 
238.798 2.53267 -0.0107355 233 203 154 1041 
238.809 2.52658 -0.0109911 241 210 162 1169 
238.82 2.52134 -0.0114574 237 203 156 1089 
238.832 2.51528 -0.011735 233 203 154 1041 
238.842 2.51023 -0.0121918 236 205 155 1073 
238.853 2.50362 -0.0123148 233 205 152 1025 
238.864 2.49818 -0.0126648 236 206 153 1057 
238.875 2.49159 -0.0129004 241 205 160 1153 
238.885 2.48726 -0.0134487 237 205 155 1089 
238.897 2.48003 -0.013586 236 203 154 1073 
238.907 2.47495 -0.0140295 235 201 152 1041 
238.918 2.46883 -0.0142059 234 202 152 1041 
238.929 2.46371 -0.0146856 237 202 155 1089 
238.94 2.45749 -0.0150852 234 205 154 1057 
238.95 2.45243 -0.0154123 234 202 150 1025 
238.96 2.4461 -0.0156326 245 209 155 1153 
238.972 2.43965 -0.0160017 244 207 156 1153 
238.983 2.43419 -0.0163422 238 208 155 1089 
238.993 2.42943 -0.0168467 241 204 154 1105 
239.003 2.42179 -0.0167398 237 203 150 1041 
239.014 2.41645 -0.0172005 243 206 152 1105 
239.024 2.41042 -0.0175276 238 205 148 1041 
239.035 2.40393 -0.0178137 238 203 148 1041 
239.045 2.39804 -0.0181122 232 203 148 993 
239.056 2.39217 -0.0184298 240 204 151 1073 
239.066 2.38596 -0.0187035 241 205 152 1089 
239.077 2.38021 -0.0191412 245 208 157 1169 
239.087 2.37332 -0.0191364 239 203 154 1089 
239.098 2.36762 -0.0197029 239 208 154 1089 
239.108 2.36164 -0.0199518 235 203 148 1009 
239.119 2.35536 -0.0202427 238 203 149 1041 
239.129 2.34974 -0.0206356 236 201 149 1025 
239.139 2.34356 -0.0209322 243 205 155 1137 
239.149 2.33717 -0.0211563 239 199 154 1089 
239.16 2.33053 -0.0214567 245 207 162 1201 
239.17 2.32423 -0.0215721 239 208 152 1073 
239.18 2.31659 -0.0215645 242 209 157 1137 
239.19 2.31095 -0.0219479 241 207 159 1153 
234.741 2.87257 0.174803 246 206 155 1153 
234.757 2.87248 0.174921 242 209 152 1105 
234.771 2.8738 0.174591 250 215 161 1233 
234.787 2.87481 0.174463 249 214 159 1217 
234.802 2.87469 0.174459 253 211 157 1233 
234.815 2.87999 0.173295 255 223 161 1281 
234.828 2.88398 0.17238 248 211 156 1185 
234.843 2.88669 0.171796 254 213 161 1265 
234.856 2.88859 0.171418 249 215 155 1185 
234.871 2.89045 0.170935 252 211 157 1217 
234.886 2.89147 0.17072 248 212 155 1169 
234.9 2.89427 0.17004 254 214 161 1265 
234.914 2.89685 0.169436 253 215 157 1233 
234.928 2.90058 0.168553 255 214 160 1265 
234.942 2.90391 0.167786 252 213 159 1233 
234.956 2.90662 0.167102 248 216 156 1185 
234.971 2.9084 0.166574 251 214 159 1233 
234.985 2.91056 0.166043 252 215 160 1249 
234.999 2.91258 0.165546 251 213 157 1217 
235.013 2.91458 0.164995 253 214 159 1249 
235.027 2.9165 0.164499 245 212 156 1153 
235.039 2.91989 0.163673 248 213 160 1217 
235.054 2.92168 0.163078 244 207 152 1121 
235.068 2.9234 0.162591 254 221 161 1265 
235.081 2.92478 0.162211 249 219 158 1201 
235.095 2.92643 0.161709 255 220 163 1297 
235.11 2.92851 0.161104 254 218 162 1281 
235.125 2.9299 0.160691 254 221 164 1297 
235.138 2.93228 0.159991 255 224 163 1297 
235.152 2.93386 0.159538 252 218 162 1265 
235.167 2.93675 0.158689 255 223 167 1329 
235.18 2.9382 0.158218 255 218 163 1297 
235.195 2.94064 0.157519 254 216 155 1217 
235.208 2.94236 0.156891 254 222 165 1297 
235.223 2.9442 0.156325 250 217 159 1217 
235.237 2.945 0.155988 247 215 156 1169 
235.251 2.94695 0.155373 247 216 157 1185 
235.265 2.94797 0.15491 254 221 164 1297 
235.279 2.95053 0.154058 250 217 160 1233 
235.292 2.95298 0.153342 254 221 163 1281 
235.306 2.95474 0.152726 255 219 163 1297 
235.32 2.95713 0.151916 254 222 172 1361 
235.333 2.95956 0.151155 244 213 159 1169 
235.346 2.96232 0.150354 219 191 143 849 
235.36 2.96499 0.149447 210 179 135 705 
235.374 2.96645 0.148907 248 208 153 1153 
235.382 2.98115 0.145223 182 148 55 -159 
235.414 2.972 0.14684 229 205 147 961 
235.428 2.97399 0.146052 247 214 162 1217 
235.443 2.97323 0.146002 245 212 156 1153 
235.457 2.97389 0.145533 246 212 159 1185 
235.47 2.97422 0.145164 247 209 160 1201 
235.486 2.97387 0.144922 247 217 158 1185 
235.499 2.97497 0.144435 246 213 157 1169 
235.513 2.97612 0.143848 236 203 146 1009 
235.527 2.97712 0.143303 243 208 157 1153 
235.542 2.97784 0.142792 244 210 155 1137 
235.555 2.98011 0.141965 247 210 154 1153 
235.57 2.98085 0.141442 246 213 158 1185 
235.583 2.98166 0.140856 251 216 159 1233 
235.597 2.98367 0.140058 251 215 164 1265 
237.443 2.98368 0.0343971 249 218 161 1233 
237.456 2.98087 0.0339346 254 219 165 1297 
237.468 2.97617 0.0339136 251 218 162 1249 
237.481 2.97261 0.0334463 247 213 159 1201 
237.493 2.96904 0.0332212 248 214 158 1201 
237.506 2.96635 0.0326347 245 213 158 1169 
237.518 2.96385 0.0321159 240 206 151 1073 
237.531 2.96075 0.0315533 246 214 158 1185 
237.543 2.95968 0.0307074 253 213 159 1249 
237.555 2.95618 0.0302658 239 205 165 1185 
237.567 2.95271 0.0299292 254 222 168 1329 
237.58 2.94893 0.0296526 124 61 30 -815 
237.592 2.94661 0.0289307 71 42 24 -1295 
237.616 2.94123 0.0277882 242 209 155 1121 
237.628 2.93923 0.0270386 249 213 159 1217 
237.641 2.93927 0.025773 245 208 153 1137 
237.653 2.93814 0.0247984 246 209 153 1137 
237.665 2.93741 0.0236492 254 215 161 1265 
237.678 2.93599 0.0226212 247 211 155 1169 
237.69 2.93308 0.0220165 249 211 157 1201 
237.702 2.92968 0.0216389 244 210 154 1137 
237.715 2.9259 0.0212545 246 213 155 1153 
237.727 2.92448 0.0202923 249 212 152 1153 
237.74 2.92164 0.0195827 246 214 160 1201 
237.752 2.91897 0.018898 244 209 149 1089 
237.764 2.91467 0.0186586 245 213 157 1169 
237.776 2.91217 0.0179338 249 213 161 1233 
237.789 2.90879 0.0173702 249 217 156 1185 
237.801 2.90398 0.0173235 243 213 157 1153 
237.813 2.90075 0.0166826 242 211 149 1073 
237.826 2.89716 0.016202 248 214 161 1217 
237.838 2.89352 0.0156841 254 214 159 1249 
237.85 2.88956 0.0154285 249 217 165 1265 
237.863 2.88657 0.0145836 250 207 151 1153 
237.875 2.88463 0.0137577 237 191 136 929 
237.903 2.90479 0.00558281 222 198 158 993 
237.916 2.9135 0.00179672 208 174 143 753 
237.928 2.9168 -0.000404358 231 205 154 1025 
237.941 2.91577 -0.0017128 254 221 173 1361 
237.955 2.91822 -0.00386715 195 162 125 513 
237.964 2.90533 -0.00186729 181 148 103 225 
237.975 2.88023 0.00314236 152 122 70 -271 
237.987 2.8696 0.00447369 170 138 99 97 
237.997 2.85746 0.00630856 247 203 163 1233 
238.008 2.84759 0.00743103 174 152 112 241 
238.021 2.83468 0.00918484 141 114 61 -431 
238.031 2.82917 0.0092926 173 147 103 161 
238.043 2.82513 0.00885582 213 182 130 689 
238.055 2.82099 0.00843239 213 189 141 785 
238.067 2.81731 0.00784206 192 169 125 481 
238.079 2.81411 0.00720692 207 180 139 721 
238.091 2.80758 0.00727654 204 176 133 641 
238.102 2.80374 0.00690174 200 172 135 625 
238.114 2.79868 0.00672531 195 165 127 529 
238.126 2.79469 0.00622177 180 159 124 385 
238.138 2.79181 0.00538826 186 165 118 385 
238.15 2.789 0.00464058 207 177 134 673 
238.162 2.78407 0.00434208 202 180 140 689 
238.173 2.77912 0.00412083 207 184 133 673 
238.184 2.77144 0.00464058 212 181 138 753 
238.196 2.76455 0.00492954 210 187 141 753 
238.208 2.76064 0.00427055 210 185 140 753 
238.22 2.756 0.00386047 228 197 147 945 
238.232 2.75231 0.00333881 229 196 148 961 
238.244 2.74758 0.00286674 237 203 152 1057 
238.254 2.74307 0.00262547 233 200 151 1025 
238.268 2.73866 0.00201511 229 199 149 977 
238.277 2.73461 0.00167847 229 205 155 1025 
238.289 2.72952 0.00142097 235 199 154 1057 
238.3 2.7256 0.000995636 234 204 152 1041 
238.312 2.72069 0.000574112 235 200 150 1025 
238.322 2.71636 0.000236511 237 207 157 1105 
238.334 2.7123 -0.000283241 238 206 154 1089 
238.346 2.70608 -0.000371933 244 207 158 1169 
238.357 2.70172 -0.000822067 245 211 161 1201 
238.368 2.69697 -0.00109386 239 207 154 1089 
238.38 2.69144 -0.00136566 235 204 152 1041 
238.391 2.68627 -0.00157261 242 210 153 1105 
238.403 2.68182 -0.00208378 245 215 162 1201 
238.413 2.67662 -0.0022068 236 205 152 1057 
238.425 2.67151 -0.00264835 243 207 158 1153 
238.436 2.6665 -0.00283432 241 207 156 1121 
238.447 2.66176 -0.00328255 235 207 154 1057 
238.458 2.65673 -0.0035553 234 200 152 1041 
238.47 2.65221 -0.00401878 233 201 156 1057 
238.481 2.64745 -0.00444794 232 204 154 1041 
238.492 2.64215 -0.00472927 234 205 152 1041 
238.503 2.63705 -0.00501728 244 210 158 1169 
238.514 2.63175 -0.00530052 245 210 161 1201 
238.525 2.62588 -0.00547218 226 204 149 945 
238.536 2.62071 -0.00571251 236 207 153 1057 
238.547 2.61558 -0.0060482 236 209 157 1089 
238.558 2.61076 -0.00643444 248 213 161 1217 
238.569 2.60556 -0.00672054 243 211 158 1153 
238.58 2.60009 -0.00695038 241 211 159 1153 
238.591 2.59465 -0.00726509 249 210 161 1233 
238.601 2.59045 -0.00773811 249 212 159 1217 
238.613 2.58519 -0.00813961 237 208 156 1089 
238.623 2.58002 -0.00838852 237 212 156 1089 
238.634 2.57381 -0.00852108 238 209 157 1105 
238.645 2.56903 -0.00887203 242 208 160 1169 
238.656 2.56298 -0.00905037 235 202 153 1057 
238.666 2.55789 -0.00939178 231 203 153 1025 
238.678 2.55245 -0.00980759 232 203 155 1041 
238.688 2.54718 -0.0101404 234 207 154 1057 
238.7 2.54227 -0.010603 235 207 155 1073 
238.71 2.53568 -0.0106678 234 204 156 1073 
238.722 2.53018 -0.0109444 236 203 158 1105 
238.732 2.52429 -0.0111418 223 196 148 913 
238.743 2.51879 -0.0114155 233 203 154 1041 
238.754 2.51346 -0.0117769 240 209 158 1137 
238.765 2.50752 -0.0120087 233 206 155 1057 
238.775 2.50148 -0.0122299 236 208 158 1105 
238.786 2.49616 -0.0125999 231 205 154 1025 
238.797 2.48993 -0.012826 236 204 155 1073 
238.808 2.48386 -0.0129242 236 205 155 1073 
238.819 2.47872 -0.0134573 235 206 153 1057 
238.83 2.47386 -0.0140266 236 202 152 1057 
238.841 2.46724 -0.0141363 236 202 154 1073 
238.852 2.46178 -0.0144768 237 203 157 1105 
238.863 2.45593 -0.0148668 235 204 152 1041 
238.873 2.45157 -0.0153942 243 207 160 1169 
238.884 2.44453 -0.0155382 238 205 156 1105 
238.895 2.43973 -0.0159874 239 205 156 1105 
238.905 2.43382 -0.0162754 236 200 151 1041 
238.916 2.42806 -0.0166035 241 203 154 1105 
238.928 2.42236 -0.0170279 234 202 145 977 
238.937 2.41739 -0.0173607 232 202 155 1041 
238.947 2.41084 -0.0175533 242 208 154 1121 
238.959 2.4048 -0.0179491 241 206 150 1073 
238.969 2.39921 -0.0182648 245 205 155 1153 
238.979 2.39401 -0.0186262 241 205 153 1105 
238.99 2.38721 -0.0187817 240 206 152 1089 
239 2.38206 -0.0192394 240 204 152 1089 
239.011 2.3757 -0.0194407 238 203 154 1089 
239.021 2.36845 -0.0194464 239 204 152 1073 
239.031 2.36233 -0.0197229 241 204 159 1153 
239.042 2.35655 -0.02003 237 205 155 1089 
239.053 2.35234 -0.0208702 233 205 156 1057 
239.063 2.34498 -0.0208588 242 206 157 1137 
239.073 2.3385 -0.0209789 230 200 151 993 
239.084 2.33237 -0.0213032 236 199 152 1057 
239.094 2.32627 -0.0215263 234 201 153 1041 
239.104 2.3206 -0.0219593 241 207 155 1121 
239.114 2.31347 -0.0219193 239 199 153 1089 
239.124 2.30791 -0.022357 247 211 151 1137 
239.134 2.30215 -0.0227175 245 209 157 1169 
239.145 2.29572 -0.0230322 246 203 145 1073 
239.155 2.28961 -0.0232553 249 208 155 1185 
239.165 2.28259 -0.023385 237 200 151 1057 
239.175 2.27662 -0.0237398 238 205 152 1073 
239.187 2.26992 -0.024065 234 196 145 977 
234.744 2.86373 0.16256 239 202 154 1089 
234.76 2.86355 0.162683 249 213 162 1233 
234.776 2.86199 0.163051 244 210 155 1137 
234.806 2.837 0.168984 251 214 153 1185 
234.822 2.83409 0.169685 249 210 158 1201 
234.836 2.83825 0.168727 247 211 159 1201 
234.85 2.84008 0.168325 255 218 163 1297 
234.864 2.8427 0.167744 250 211 159 1217 
234.878 2.844 0.167488 254 210 156 1233 
234.893 2.84604 0.167018 254 216 159 1249 
234.907 2.84824 0.166522 255 219 165 1313 
234.921 2.85074 0.165953 255 227 168 1329 
234.935 2.85313 0.165353 249 212 153 1169 
234.949 2.85591 0.164683 254 213 162 1281 
234.963 2.85894 0.164035 247 208 155 1169 
234.978 2.86068 0.163571 255 218 161 1281 
234.991 2.86329 0.162953 255 220 158 1249 
235.006 2.86525 0.16243 255 219 162 1281 
235.019 2.86743 0.161849 254 217 163 1281 
235.034 2.86932 0.16141 255 219 160 1265 
235.047 2.87218 0.160712 247 211 155 1169 
235.059 2.87507 0.159909 250 213 159 1217 
235.074 2.87712 0.159329 254 220 162 1281 
235.088 2.879 0.158855 249 217 160 1217 
235.101 2.88054 0.158388 254 221 164 1297 
235.115 2.88227 0.157891 238 208 153 1073 
235.13 2.88386 0.157402 249 212 161 1233 
235.144 2.8857 0.156901 255 219 165 1313 
235.158 2.88771 0.156306 254 218 159 1249 
235.17 2.89104 0.155462 255 220 165 1313 
235.185 2.89287 0.15484 255 219 163 1297 
235.198 2.89432 0.154366 254 219 161 1265 
235.213 2.89579 0.153902 254 219 158 1249 
235.226 2.89779 0.153273 255 217 161 1281 
235.241 2.89997 0.152622 255 224 168 1329 
235.254 2.90096 0.152288 255 224 164 1297 
235.268 2.90307 0.15159 255 222 164 1297 
235.282 2.90455 0.15103 247 213 154 1153 
235.296 2.90728 0.15019 254 218 164 1297 
235.309 2.90933 0.14959 254 219 157 1233 
235.323 2.91108 0.148982 254 220 164 1297 
235.337 2.91269 0.1484 251 218 162 1249 
235.35 2.91585 0.147444 249 214 160 1217 
235.364 2.91747 0.146858 244 209 154 1137 
235.376 2.92221 0.145542 254 221 159 1249 
235.389 2.92495 0.144607 149 106 72 -287 
235.417 2.9281 0.143435 243 216 166 1217 
235.431 2.92659 0.143508 239 209 160 1137 
235.445 2.9261 0.143368 239 205 150 1057 
235.46 2.92692 0.142909 243 208 157 1153 
235.474 2.92738 0.142557 241 210 156 1121 
235.487 2.92855 0.142081 240 210 156 1121 
235.502 2.92903 0.141649 244 209 161 1185 
235.515 2.93021 0.141068 239 208 156 1105 
235.529 2.93115 0.140596 250 216 156 1201 
235.543 2.93193 0.14007 246 216 158 1185 
235.557 2.93283 0.139565 243 210 155 1137 
235.57 2.93451 0.138865 242 211 157 1137 
235.585 2.93572 0.138238 246 212 157 1169 
235.598 2.93631 0.137774 249 210 157 1201 
235.612 2.93802 0.136987 248 207 158 1201 
235.625 2.93901 0.136512 235 205 152 1041 
235.638 2.94124 0.135647 254 216 162 1281 
235.652 2.94295 0.134819 247 211 156 1169 
235.665 2.94471 0.13406 248 213 157 1185 
235.679 2.94582 0.133461 248 211 152 1153 
235.692 2.94659 0.132944 255 217 157 1249 
235.706 2.94766 0.132308 247 206 149 1121 
235.719 2.95013 0.131273 254 210 154 1217 
235.732 2.95078 0.130769 248 207 149 1121 
235.746 2.95287 0.129839 242 204 148 1073 
235.759 2.95437 0.129061 254 216 158 1249 
235.772 2.95662 0.128209 254 218 163 1281 
235.785 2.95823 0.127384 246 209 151 1121 
235.798 2.95934 0.126685 246 209 155 1153 
235.812 2.96004 0.126152 250 211 157 1201 
235.824 2.9613 0.125433 246 210 156 1169 
235.838 2.96229 0.124689 245 211 155 1153 
235.852 2.96279 0.124123 249 210 154 1169 
235.865 2.96502 0.123157 255 220 161 1281 
235.878 2.96636 0.122388 247 206 158 1185 
235.891 2.96753 0.121649 242 206 157 1137 
235.904 2.96907 0.120873 247 205 159 1201 
235.918 2.9693 0.120238 239 202 148 1041 
235.931 2.97079 0.11949 248 209 157 1185 
235.945 2.97057 0.119009 242 204 154 1121 
235.958 2.97058 0.118553 255 215 161 1281 
235.972 2.97117 0.117826 253 211 157 1233 
235.985 2.97065 0.117515 255 215 159 1265 
235.998 2.97158 0.116714 255 220 158 1249 
236.011 2.97319 0.115848 249 205 148 1121 
236.024 2.9734 0.115285 255 211 159 1265 
236.038 2.97434 0.114474 252 211 151 1169 
236.051 2.97431 0.11405 255 213 156 1233 
236.064 2.97518 0.11328 255 225 171 1361 
236.077 2.97575 0.112625 255 220 160 1265 
236.09 2.97674 0.11174 247 204 148 1105 
236.103 2.97668 0.111237 251 211 157 1217 
236.117 2.97726 0.110507 247 209 154 1153 
236.13 2.97821 0.109754 249 211 159 1217 
236.144 2.97895 0.108948 247 206 159 1201 
236.156 2.97857 0.108463 247 211 157 1185 
236.171 2.97964 0.107561 254 213 159 1249 
236.184 2.97897 0.107186 254 209 160 1265 
236.197 2.97985 0.106316 255 219 165 1313 
236.209 2.98053 0.105606 250 212 159 1217 
236.223 2.98014 0.105009 248 209 156 1185 
236.235 2.98036 0.104364 252 214 162 1265 
236.249 2.98012 0.103789 250 210 158 1217 
236.262 2.98044 0.103073 255 221 167 1329 
236.275 2.98016 0.102588 253 218 165 1297 
236.287 2.98075 0.10178 255 222 168 1329 
236.301 2.98126 0.101004 245 213 155 1153 
236.314 2.98024 0.100614 246 214 163 1217 
236.327 2.98077 0.099824 255 223 169 1345 
236.34 2.98165 0.0988426 255 223 170 1345 
236.353 2.98387 0.0976372 255 222 171 1361 
236.418 2.98377 0.0942192 254 222 162 1281 
236.431 2.98357 0.0935402 200 164 124 545 
237.255 2.98331 0.038805 239 202 151 1073 
237.268 2.9812 0.038209 239 204 150 1057 
237.28 2.97843 0.0378389 241 207 152 1089 
237.293 2.97483 0.0376081 243 205 151 1105 
237.305 2.9715 0.0373888 244 209 153 1121 
237.318 2.96747 0.0371914 246 207 153 1137 
237.331 2.9648 0.0366955 250 214 160 1233 
237.343 2.96133 0.0363989 248 214 156 1185 
237.356 2.95938 0.0358219 251 212 159 1233 
237.368 2.95548 0.0356636 248 212 159 1201 
237.381 2.95245 0.0352211 249 214 156 1185 
237.393 2.94977 0.0346956 252 215 160 1249 
237.405 2.94666 0.0344133 254 225 171 1345 
237.417 2.94361 0.0340433 252 217 161 1249 
237.43 2.94104 0.0334425 244 211 152 1121 
237.442 2.93788 0.0330839 247 211 158 1185 
237.455 2.93636 0.0322695 249 215 157 1201 
237.467 2.93275 0.0320063 248 212 158 1201 
237.48 2.92957 0.0315323 252 215 158 1233 
237.491 2.92579 0.0313253 249 211 157 1201 
237.504 2.92328 0.0307407 243 211 161 1185 
237.516 2.92057 0.030241 247 210 157 1185 
237.529 2.91847 0.0294361 248 210 158 1201 
237.541 2.91678 0.0287313 240 206 152 1089 
237.553 2.91367 0.0282736 249 210 157 1201 
237.565 2.91089 0.0277119 230 193 140 913 
237.589 2.90546 0.0267029 234 204 138 929 
237.602 2.9035 0.0259304 254 234 169 1329 
237.614 2.90206 0.0249796 246 209 158 1185 
237.626 2.89946 0.0244637 242 208 160 1169 
237.638 2.89775 0.0236015 251 215 159 1233 
237.65 2.89641 0.0226479 246 210 156 1169 
237.662 2.89576 0.0215034 243 211 154 1121 
237.675 2.89391 0.0206194 245 212 155 1153 
237.687 2.89151 0.0199881 249 215 159 1217 
237.699 2.88818 0.0195189 253 215 159 1249 
237.711 2.88511 0.0190001 249 213 157 1201 
237.723 2.88285 0.0183029 248 210 155 1169 
237.736 2.87989 0.0176096 255 216 155 1233 
237.748 2.87743 0.0169191 245 209 154 1137 
237.76 2.87381 0.0165558 254 214 158 1249 
237.772 2.87007 0.0161085 251 212 159 1233 
237.785 2.8673 0.0154133 248 208 153 1153 
237.797 2.86359 0.0151129 249 211 155 1185 
237.809 2.86205 0.013999 247 209 151 1137 
237.822 2.86181 0.0127335 247 212 155 1169 
237.835 2.86071 0.0114756 244 206 154 1137 
237.846 2.85723 0.0111046 247 213 158 1185 
237.859 2.85454 0.010253 240 209 146 1041 
237.872 2.86072 0.00727272 203 172 126 577 
237.885 2.8633 0.00515079 229 192 138 881 
237.898 2.86558 0.00298882 230 197 152 1009 
237.911 2.87041 0.000333786 228 193 137 865 
237.923 2.8747 -0.0022068 201 168 134 625 
237.936 2.87285 -0.00325871 250 218 165 1265 
237.948 2.86305 -0.00218391 188 164 109 321 
237.956 2.83605 0.00377083 249 212 164 1249 
237.968 2.82186 0.00594139 254 215 163 1281 
237.98 2.8155 0.00612736 220 187 148 897 
237.99 2.80833 0.00669003 215 184 133 737 
238.001 2.79906 0.00768185 220 190 152 929 
238.015 2.79452 0.00713825 221 187 148 897 
238.025 2.79012 0.00709057 215 187 142 801 
238.037 2.78588 0.00667 200 174 136 641 
238.049 2.78129 0.00638866 195 173 133 577 
238.061 2.77688 0.00595093 165 146 109 145 
238.072 2.77244 0.00570107 157 135 96 -31 
238.084 2.76609 0.00587749 162 139 96 17 
238.095 2.7609 0.00578976 153 137 85 -143 
238.109 2.7665 0.00265598 166 144 101 81 
238.122 2.77563 -0.00136089 162 148 109 113 
238.136 2.78004 -0.00414467 172 152 116 257 
238.148 2.7799 -0.00555801 187 162 125 449 
238.16 2.77732 -0.00650978 172 150 111 209 
238.171 2.77155 -0.0064764 168 147 108 161 
238.182 2.76118 -0.00527191 180 159 119 337 
238.19 2.73465 0.000370026 161 141 100 33 
238.2 2.72179 0.00229073 183 164 125 417 
238.212 2.71784 0.00165272 200 170 130 593 
238.224 2.71383 0.00126171 201 173 129 593 
238.237 2.70939 0.000679016 209 180 137 721 
238.247 2.70456 0.000567436 212 196 143 785 
238.26 2.70046 -0.000163078 223 191 146 897 
238.27 2.69608 -0.00026226 224 192 145 897 
238.281 2.69088 -0.000505447 220 193 144 865 
238.292 2.68775 -0.0011692 230 201 151 993 
238.304 2.68233 -0.00145054 234 206 157 1073 
238.314 2.67911 -0.00205517 236 207 152 1057 
238.326 2.67378 -0.00217342 237 209 155 1089 
238.337 2.66859 -0.00252628 239 207 157 1121 
238.349 2.66413 -0.0028677 231 206 152 1009 
238.359 2.65894 -0.00299454 234 203 152 1041 
238.371 2.654 -0.00349331 236 204 153 1057 
238.382 2.64861 -0.00367355 239 209 161 1153 
238.394 2.64354 -0.00394058 240 210 158 1137 
238.404 2.63905 -0.00430012 243 212 156 1137 
238.416 2.63443 -0.0047617 243 209 157 1153 
238.427 2.62931 -0.00503826 241 208 156 1121 
238.438 2.62424 -0.00524807 240 207 156 1121 
238.449 2.6192 -0.00551128 240 210 159 1137 
238.46 2.61383 -0.00581264 240 206 161 1153 
238.471 2.60875 -0.00611115 235 206 153 1057 
238.482 2.60344 -0.00628185 242 208 157 1137 
238.493 2.59831 -0.00655174 245 211 157 1169 
238.504 2.59363 -0.00697327 238 208 154 1089 
238.515 2.58847 -0.00728893 239 205 156 1105 
238.526 2.58298 -0.00739956 238 203 152 1073 
238.537 2.57772 -0.0078125 233 205 160 1089 
238.548 2.573 -0.00820351 239 207 159 1137 
238.559 2.56798 -0.00848484 242 211 159 1153 
238.569 2.56355 -0.00898647 241 210 157 1137 
238.581 2.55758 -0.00915623 243 210 159 1169 
238.591 2.55326 -0.00960159 240 209 155 1105 
238.602 2.54734 -0.0097456 239 209 160 1137 
238.612 2.54226 -0.00998878 241 209 156 1121 
238.624 2.53741 -0.0105219 241 211 161 1169 
238.634 2.53168 -0.0105982 240 207 157 1121 
238.645 2.52655 -0.0110321 240 209 161 1153 
238.656 2.52145 -0.0113621 236 202 148 1025 
238.667 2.51546 -0.0115242 235 204 157 1089 
238.677 2.51071 -0.0119925 233 202 157 1073 
238.689 2.50494 -0.0121698 228 203 152 993 
238.699 2.49989 -0.012641 237 206 157 1105 
238.71 2.49356 -0.0126534 237 209 160 1121 
238.721 2.48795 -0.0129585 239 208 156 1105 
238.732 2.48288 -0.0133667 231 200 150 993 
238.743 2.47805 -0.013855 236 203 156 1089 
238.753 2.47178 -0.0139484 232 208 156 1057 
238.764 2.46582 -0.0141611 237 205 157 1105 
238.775 2.46007 -0.0143909 236 207 156 1089 
238.786 2.45499 -0.0148993 240 206 155 1105 
238.796 2.44941 -0.0152245 234 202 153 1041 
238.807 2.44302 -0.0153589 236 206 156 1089 
238.818 2.43834 -0.0158234 240 209 156 1121 
238.829 2.43234 -0.0160742 240 207 158 1137 
238.839 2.42655 -0.0163813 234 201 149 1009 
238.851 2.42109 -0.0168886 238 206 158 1121 
238.86 2.41599 -0.0171528 245 209 157 1169 
238.872 2.40966 -0.0174379 240 205 153 1089 
238.882 2.40392 -0.0177116 237 205 153 1073 
238.892 2.39842 -0.0180206 233 203 153 1041 
238.903 2.39284 -0.0183468 241 208 157 1137 
238.915 2.38722 -0.0188732 242 207 153 1105 
238.924 2.38172 -0.0189514 239 204 152 1073 
238.934 2.37568 -0.0192795 239 204 156 1105 
238.946 2.36994 -0.019783 254 214 167 1313 
238.956 2.36424 -0.0200853 244 207 156 1153 
238.966 2.35892 -0.0203333 237 206 152 1057 
238.976 2.35231 -0.0204868 238 203 152 1073 
238.987 2.34639 -0.0207748 237 203 155 1089 
238.997 2.34034 -0.0210934 237 206 157 1105 
239.008 2.33372 -0.0211458 230 198 146 961 
239.018 2.3278 -0.0214214 241 205 161 1169 
239.028 2.32211 -0.0218334 237 203 154 1073 
239.039 2.31587 -0.0219898 236 205 155 1073 
239.049 2.31019 -0.0224133 238 203 154 1089 
239.059 2.30402 -0.0226526 235 204 153 1057 
239.07 2.29734 -0.0228214 237 206 155 1089 
239.079 2.29164 -0.0230656 239 203 151 1073 
239.09 2.28554 -0.0233555 234 200 150 1025 
239.1 2.27967 -0.0237045 241 206 154 1105 
239.11 2.27377 -0.0241098 237 203 148 1025 
239.12 2.26725 -0.0241976 239 204 157 1121 
239.131 2.26144 -0.0246553 236 201 148 1025 
239.14 2.25532 -0.0248661 237 205 162 1137 
239.151 2.24817 -0.0248709 236 205 152 1057 
239.161 2.24274 -0.0253744 236 203 150 1041 
239.172 2.2358 -0.0256634 241 203 157 1137 
239.181 2.2295 -0.0257149 233 203 154 1041 
239.191 2.22334 -0.0259647 236 203 154 1073 
234.83 2.78918 0.165985 248 212 158 1201 
234.843 2.79331 0.165105 249 210 160 1217 
234.857 2.79541 0.164659 247 211 156 1169 
234.871 2.79648 0.164474 253 211 159 1249 
234.885 2.79992 0.163703 245 207 154 1137 
234.899 2.8013 0.163354 249 208 160 1217 
234.913 2.80425 0.162698 249 213 158 1201 
234.927 2.80652 0.162212 255 218 160 1265 
234.941 2.80937 0.161559 255 217 160 1265 
234.955 2.81092 0.161267 255 215 159 1265 
234.969 2.81348 0.160616 255 221 164 1297 
234.983 2.81556 0.160077 255 220 164 1297 
234.997 2.81813 0.159526 255 219 159 1265 
235.011 2.82053 0.158916 255 219 162 1281 
235.025 2.82219 0.158511 254 223 165 1297 
235.038 2.82518 0.157742 250 221 159 1217 
235.052 2.82725 0.157314 241 216 157 1137 
235.066 2.82989 0.156633 242 212 158 1153 
235.079 2.83195 0.156031 249 213 160 1217 
235.094 2.83323 0.155663 251 218 162 1249 
235.107 2.83556 0.155106 254 218 161 1265 
235.119 2.83727 0.15465 254 220 161 1265 
235.133 2.83907 0.154071 255 224 164 1297 
235.149 2.84019 0.15379 255 219 171 1361 
235.162 2.84209 0.153204 254 219 162 1281 
235.176 2.84512 0.152416 254 219 158 1249 
235.189 2.84702 0.151888 254 217 163 1281 
235.204 2.84875 0.151377 255 218 161 1281 
235.216 2.85072 0.150724 255 219 160 1265 
235.231 2.85191 0.15036 254 219 159 1249 
235.245 2.8535 0.149855 254 223 164 1297 
235.259 2.85586 0.149109 254 221 161 1265 
235.272 2.85767 0.148584 254 221 161 1265 
235.285 2.86004 0.147796 254 221 160 1265 
235.299 2.86075 0.147562 255 224 163 1297 
235.313 2.86328 0.146729 251 216 162 1249 
235.326 2.86579 0.14603 255 221 164 1297 
235.34 2.86732 0.145441 247 216 161 1217 
235.354 2.8692 0.14477 254 213 159 1249 
235.367 2.8715 0.144128 245 215 160 1185 
235.38 2.87385 0.14335 255 228 170 1345 
235.394 2.87545 0.142776 232 191 104 641 
235.421 2.87867 0.141546 245 210 163 1217 
235.435 2.87883 0.141234 243 210 151 1105 
235.448 2.87967 0.1409 245 207 154 1137 
235.462 2.88048 0.140451 238 207 152 1073 
235.476 2.8814 0.140001 247 209 161 1217 
235.49 2.88249 0.139455 244 211 158 1169 
235.503 2.88353 0.139005 248 212 159 1201 
235.518 2.88429 0.138474 241 208 154 1105 
235.53 2.88574 0.137899 243 211 155 1137 
235.544 2.88694 0.137341 250 216 160 1233 
235.558 2.88818 0.136718 247 216 158 1185 
235.572 2.88925 0.136226 250 214 156 1201 
235.585 2.8912 0.135427 249 212 160 1217 
235.6 2.89171 0.134932 253 210 156 1217 
235.612 2.89316 0.134357 247 210 158 1185 
235.626 2.89484 0.133594 249 207 158 1201 
235.639 2.89563 0.133123 247 211 161 1217 
235.653 2.89757 0.132369 247 210 149 1121 
235.666 2.89945 0.131553 247 209 151 1137 
235.68 2.90033 0.131023 253 216 153 1201 
235.692 2.90209 0.130219 253 213 154 1201 
235.706 2.90285 0.129713 255 211 158 1249 
235.72 2.90371 0.129092 248 209 153 1153 
235.732 2.90634 0.128073 254 209 153 1201 
235.746 2.90823 0.127251 255 217 157 1249 
235.759 2.90982 0.126544 253 212 156 1217 
235.772 2.91188 0.125666 246 207 150 1121 
235.785 2.91297 0.125044 255 213 156 1233 
235.798 2.91522 0.124025 252 213 157 1217 
235.811 2.91603 0.123437 251 209 155 1201 
235.824 2.91796 0.122591 251 213 158 1217 
235.837 2.91903 0.121979 249 211 153 1169 
235.85 2.91969 0.121365 250 212 159 1217 
235.863 2.92038 0.120801 250 210 155 1185 
235.877 2.9224 0.119853 253 211 159 1249 
235.89 2.92353 0.119101 253 211 159 1249 
235.903 2.9243 0.118473 249 209 157 1201 
235.916 2.92514 0.117829 244 205 152 1121 
235.93 2.92546 0.117298 252 215 157 1217 
235.943 2.92616 0.11668 252 219 159 1233 
235.956 2.9268 0.115988 254 216 167 1313 
235.969 2.92689 0.115541 249 211 155 1185 
235.983 2.92842 0.11461 254 217 163 1281 
235.996 2.92837 0.114195 255 214 160 1265 
236.009 2.92937 0.11341 255 217 161 1281 
236.022 2.93136 0.11244 255 214 157 1249 
236.035 2.93126 0.111999 255 209 153 1217 
236.048 2.93198 0.111301 255 216 161 1281 
236.061 2.93339 0.11045 255 217 161 1281 
236.074 2.9327 0.110029 255 213 160 1265 
236.087 2.93345 0.109382 252 215 156 1217 
236.1 2.9346 0.108509 247 209 155 1169 
236.113 2.93521 0.107795 255 216 159 1265 
236.127 2.93482 0.107397 248 207 156 1185 
236.14 2.93575 0.10655 244 207 154 1137 
236.153 2.93636 0.10587 244 208 154 1137 
236.166 2.93656 0.105274 253 207 157 1233 
236.18 2.93762 0.104384 248 208 158 1201 
236.193 2.93644 0.104035 252 212 160 1249 
236.206 2.9371 0.103281 241 205 153 1105 
236.218 2.93797 0.102474 248 212 162 1233 
236.232 2.93776 0.10188 240 204 151 1073 
236.244 2.93814 0.101249 246 207 155 1153 
236.258 2.93713 0.100902 255 213 163 1297 
236.27 2.93791 0.100089 252 213 160 1249 
236.283 2.93753 0.0996056 248 209 158 1201 
236.295 2.93848 0.0987072 250 210 157 1201 
236.309 2.93858 0.0980501 255 214 162 1281 
236.322 2.93805 0.0975437 246 214 159 1185 
236.335 2.93836 0.0967817 255 221 167 1329 
236.348 2.93845 0.0961361 255 215 158 1249 
236.361 2.94007 0.0950584 250 215 160 1233 
236.374 2.94113 0.0940809 249 210 157 1201 
236.386 2.94237 0.0930738 255 216 165 1313 
236.4 2.94151 0.092639 254 220 167 1313 
236.412 2.94158 0.0919704 249 210 158 1201 
236.426 2.94145 0.091238 249 213 154 1169 
236.438 2.94075 0.0907869 242 213 169 1233 
236.451 2.94094 0.0899277 239 203 148 1041 
236.464 2.94059 0.0893917 245 212 157 1169 
236.477 2.93922 0.0889835 246 208 158 1185 
236.489 2.9388 0.0884552 246 213 161 1201 
237.117 2.96834 0.0414467 246 211 150 1121 
237.13 2.96523 0.0412016 249 212 153 1169 
237.143 2.9624 0.0407906 244 201 149 1089 
237.155 2.95988 0.0403814 247 203 153 1153 
237.169 2.95766 0.0397768 241 202 146 1041 
237.181 2.95539 0.0393877 240 202 149 1057 
237.194 2.95303 0.0388784 232 198 144 961 
237.206 2.95104 0.0383921 240 202 151 1073 
237.219 2.9481 0.0379934 246 207 145 1073 
237.231 2.94564 0.037611 242 199 143 1025 
237.244 2.94254 0.0372467 244 201 145 1057 
237.256 2.93996 0.0368204 249 208 153 1169 
237.268 2.93753 0.0363569 237 196 145 1009 
237.28 2.93346 0.0363522 246 208 151 1121 
237.293 2.93095 0.0358791 245 204 153 1137 
237.305 2.92788 0.0354614 235 204 151 1041 
237.318 2.92463 0.035141 240 201 148 1057 
237.331 2.92197 0.0346403 239 203 156 1105 
237.343 2.91809 0.0345802 245 208 150 1105 
237.355 2.91581 0.0340328 251 214 159 1233 
237.367 2.91349 0.0334139 249 214 158 1201 
237.38 2.91106 0.0329418 250 211 156 1201 
237.392 2.90797 0.032547 254 216 160 1265 
237.404 2.90432 0.0323029 255 212 160 1265 
237.416 2.90227 0.0317993 250 212 159 1217 
237.429 2.89838 0.0315685 252 217 163 1265 
237.441 2.89673 0.0308418 245 207 155 1153 
237.453 2.89407 0.0302935 238 203 152 1073 
237.465 2.89065 0.0300341 247 208 155 1169 
237.478 2.88815 0.0293417 244 209 153 1121 
237.49 2.88365 0.029376 238 200 144 1009 
237.502 2.88155 0.028677 242 207 157 1137 
237.514 2.87951 0.0280533 242 208 157 1137 
237.527 2.87619 0.0276184 243 212 155 1137 
237.538 2.87478 0.0268106 245 210 152 1121 
237.551 2.87105 0.0265026 250 208 159 1217 
237.563 2.86947 0.0256872 244 203 149 1089 
237.575 2.86686 0.0251722 251 208 156 1201 
237.587 2.86422 0.02458 251 210 157 1217 
237.599 2.86214 0.0238199 235 204 145 993 
237.611 2.86098 0.0228682 254 213 155 1217 
237.623 2.85877 0.0222416 250 206 150 1153 
237.635 2.85645 0.0215197 253 210 154 1201 
237.647 2.85518 0.0206804 245 209 157 1169 
237.659 2.85322 0.0199089 243 210 154 1121 
237.671 2.85135 0.0190334 246 216 158 1185 
237.684 2.84975 0.0181675 249 216 161 1233 
237.695 2.84709 0.0175838 255 217 163 1297 
237.708 2.84452 0.0168409 253 213 159 1249 
237.719 2.84104 0.0165138 254 216 162 1281 
237.733 2.83836 0.0157156 250 214 159 1217 
237.744 2.83699 0.014782 247 213 159 1201 
237.756 2.83337 0.0144196 254 213 167 1313 
237.768 2.83225 0.013339 244 210 154 1137 
237.782 2.83555 0.0110159 249 212 157 1201 
237.793 2.83467 0.00996494 251 216 161 1249 
237.806 2.83324 0.00894833 246 216 163 1217 
237.819 2.84018 0.00568676 241 214 158 1137 
237.832 2.83928 0.00442314 250 215 159 1217 
237.843 2.83631 0.00392723 249 214 158 1201 
237.856 2.83331 0.0031929 248 210 157 1185 
237.868 2.83224 0.00214005 250 211 156 1201 
237.881 2.834 0.000173569 223 185 122 705 
237.894 2.83953 -0.00277233 215 184 137 769 
237.907 2.84303 -0.00514412 178 151 100 177 
237.919 2.84559 -0.00718117 161 130 77 -143 
237.932 2.84626 -0.00897026 156 136 79 -175 
237.943 2.82879 -0.00573349 189 157 109 337 
237.952 2.81271 -0.0027256 212 181 136 737 
237.964 2.79841 -0.000442505 223 191 146 897 
237.975 2.78336 0.00207233 229 198 151 993 
237.985 2.77199 0.00379276 220 192 147 881 
237.996 2.75994 0.00556183 206 177 134 673 
238.009 2.75498 0.00525856 197 170 128 545 
238.019 2.75159 0.00485134 185 161 124 417 
238.031 2.74742 0.00444794 182 158 121 369 
238.043 2.74315 0.00414753 160 137 97 1 
238.055 2.73718 0.00411892 164 144 102 81 
238.066 2.73374 0.00361919 152 127 77 -223 
238.078 2.72842 0.00353146 138 118 63 -447 
238.089 2.72384 0.00331497 145 131 79 -255 
238.104 2.73853 -0.00227165 129 108 62 -527 
238.121 2.77145 -0.0128689 108 87 53 -767 
238.132 2.76139 -0.011652 124 113 70 -495 
238.141 2.74461 -0.00860977 117 99 65 -591 
238.154 2.74192 -0.00943947 172 157 111 209 
238.169 2.76531 -0.0174541 165 140 108 129 
238.177 2.73542 -0.0108089 153 132 89 -111 
238.182 2.69315 -0.000745773 168 143 109 161 
238.194 2.68817 -0.00101566 175 153 114 257 
238.206 2.68269 -0.00115871 165 142 103 97 
238.217 2.67793 -0.00138855 175 155 112 241 
238.229 2.67286 -0.00172138 191 165 126 481 
238.24 2.66884 -0.00207806 198 171 130 577 
238.252 2.66441 -0.00266933 209 181 135 705 
238.262 2.65982 -0.00275135 222 194 148 913 
238.274 2.655 -0.00310612 231 199 155 1041 
238.284 2.65075 -0.00339794 235 202 157 1089 
238.296 2.64571 -0.00379276 233 202 151 1025 
238.306 2.64166 -0.00403309 243 207 158 1153 
238.318 2.63695 -0.00438976 235 202 150 1025 
238.329 2.63142 -0.00460148 241 207 161 1169 
238.34 2.62611 -0.00477409 235 203 152 1041 
238.351 2.62278 -0.00532246 237 207 155 1089 
238.363 2.61627 -0.00530338 228 203 153 993 
238.374 2.61138 -0.00560951 235 201 152 1041 
238.385 2.60597 -0.00583553 236 207 156 1089 
238.395 2.60045 -0.00582409 241 208 159 1153 
238.407 2.59654 -0.00652981 241 207 156 1121 
238.418 2.59182 -0.00682068 236 206 148 1025 
238.429 2.586 -0.00686741 244 211 163 1201 
238.439 2.58148 -0.00726509 242 209 157 1137 
238.451 2.57599 -0.00744057 244 211 159 1169 
238.462 2.57139 -0.00785637 242 208 158 1153 
238.473 2.56609 -0.00802898 237 208 153 1073 
238.483 2.56115 -0.00840569 235 208 158 1089 
238.494 2.55645 -0.00870609 235 206 155 1073 
238.505 2.55117 -0.0091095 240 207 159 1137 
238.516 2.54641 -0.00937271 234 202 153 1041 
238.527 2.54102 -0.00966072 240 202 158 1137 
238.538 2.53565 -0.00989437 238 208 158 1121 
238.549 2.53085 -0.010191 235 205 155 1073 
238.559 2.52575 -0.0105247 240 208 156 1121 
238.57 2.52062 -0.010849 242 210 164 1201 
238.581 2.51659 -0.0113068 241 207 154 1105 
238.591 2.51086 -0.0115566 235 210 155 1073 
238.602 2.5064 -0.0120382 241 210 158 1137 
238.613 2.50112 -0.0123291 245 208 157 1169 
238.623 2.49598 -0.0125332 241 207 157 1137 
238.635 2.49022 -0.0128164 233 202 153 1041 
238.645 2.485 -0.0130281 242 210 157 1137 
238.656 2.47942 -0.0133066 225 191 144 897 
238.666 2.47433 -0.0136385 226 198 151 961 
238.678 2.46886 -0.0140362 228 201 151 977 
238.688 2.46308 -0.0141478 224 194 148 929 
238.699 2.45725 -0.0143833 230 203 153 1009 
238.709 2.45207 -0.0147209 231 203 154 1025 
238.72 2.44727 -0.0152273 229 202 147 961 
238.731 2.44243 -0.0156059 229 201 152 993 
238.742 2.43635 -0.0158072 234 206 152 1041 
238.752 2.43049 -0.0160227 230 201 151 993 
238.763 2.42472 -0.016243 232 204 156 1057 
238.774 2.41931 -0.0166111 235 204 156 1073 
238.785 2.41426 -0.0169735 238 206 156 1105 
238.796 2.40783 -0.01719 232 202 152 1025 
238.806 2.40304 -0.0176382 234 205 151 1025 
238.817 2.39723 -0.0178947 235 204 155 1073 
238.827 2.39132 -0.0180826 235 200 155 1073 
238.839 2.38649 -0.0187349 239 205 155 1105 
238.848 2.38117 -0.0189743 236 202 153 1057 
238.86 2.37471 -0.0192375 233 201 147 993 
238.87 2.36928 -0.0195293 239 205 157 1121 
238.88 2.36376 -0.0198288 235 202 153 1057 
238.891 2.35817 -0.0201445 244 208 150 1105 
238.902 2.35232 -0.0205345 241 206 157 1137 
238.911 2.34765 -0.0208769 243 206 160 1169 
